ply
format ascii 1.0
comment PCL generated
element vertex 1364
property float x
property float y
property float z
element camera 0
property float view_px
property float view_py
property float view_pz
property float x_axisx
property float x_axisy
property float x_axisz
property float y_axisx
property float y_axisy
property float y_axisz
property float z_axisx
property float z_axisy
property float z_axisz
property float focal
property float scalex
property float scaley
property float centerx
property float centery
property int viewportx
property int viewporty
property float k1
property float k2
end_header
-0.74446148 -0.069568932 0.9952203
-0.72865921 -0.064426273 0.98590404
-0.58553404 -0.10564592 1.0472811
-0.47983921 -0.050370861 0.95030785
-0.45960182 -0.03860376 0.92977542
-0.46255744 -0.048843525 0.94692051
-0.50293785 -0.099599063 1.033172
-0.50535053 -0.10275622 1.0385323
-0.46419173 -0.082369879 1.0026597
-0.46147886 -0.085487336 1.0077014
-0.43947691 -0.07339488 0.98654187
-0.44168878 -0.078602359 0.99529606
-0.43291542 -0.08682663 1.0085171
-0.42452973 -0.10923464 1.0453044
-0.43486094 -0.15572959 1.1230019
-0.43081331 -0.1509442 1.1148579
-0.42864275 -0.1522781 1.1169655
-1.1999221 -0.046684805 0.98301136
-1.2210419 -0.053094313 0.99478364
-0.93131506 -0.028261207 0.93837118
-0.92805648 -0.029068701 0.93954676
-0.91285813 -0.031771161 0.94325805
-0.91559112 -0.035388865 0.94942522
-0.91898489 -0.038450219 0.95470023
-0.68937719 -0.15112364 1.1304263
-0.58979899 -0.10568016 1.0495672
-0.5120334 -0.06391114 0.97596109
-0.51184773 -0.064580217 0.9770658
-0.51483846 -0.06916073 0.98484993
-0.46597442 -0.051774107 0.953354
-0.45639226 -0.062785566 0.97119552
-0.45441979 -0.063514933 0.9723078
-0.47058439 -0.095964849 1.0271925
-0.42558017 -0.07078553 0.98291856
-0.43074855 -0.08264073 1.0029316
-0.43287033 -0.11241154 1.0526247
-0.42334408 -0.10820209 1.0451189
-0.43052137 -0.15457657 1.1227278
-1.2047739 -0.045063499 0.98392081
-1.2216396 -0.050701976 0.99426353
-1.1683023 -0.049948979 0.99009079
-0.95507586 -0.017131468 0.92360562
-0.94645464 -0.027239762 0.94002402
-0.9483819 -0.028381638 0.94203722
-0.90585029 -0.035862934 0.95221317
-0.70126325 -0.15255135 1.1360022
-0.7005071 -0.15327978 1.1371781
-0.61007255 -0.11414349 1.0668453
-0.60975915 -0.11496037 1.0681931
-0.48559585 -0.05117828 0.95483768
-0.47331619 -0.044299174 0.94267267
-0.47551161 -0.066246778 0.97946388
-0.47846508 -0.070449263 0.98664701
-0.46732539 -0.093028277 1.0237644
-0.44486821 -0.086779043 1.0120957
-0.42953035 -0.078606136 0.99760187
-0.42854142 -0.097739227 1.0295163
-0.43147287 -0.10623192 1.0438665
-0.42972922 -0.11004358 1.0501399
-0.42404091 -0.11232657 1.0536436
-0.44008854 -0.14811295 1.1143142
-0.43511468 -0.15465051 1.1249657
-0.9289639 -0.02849669 0.9437083
-0.92324507 -0.028043248 0.94262028
-0.92542827 -0.03074988 0.94728237
-0.91093338 -0.030618185 0.94623041
-0.69690818 -0.15594485 1.1440345
-0.60092038 -0.11332557 1.0670894
-0.50817442 -0.057513896 0.96821654
-0.50599861 -0.0622513 0.97603285
-0.45556498 -0.031203814 0.92109746
-0.48011723 -0.068613231 0.98521274
-0.48568714 -0.079521626 1.0038173
-0.45390987 -0.064396173 0.97664094
-0.46783072 -0.093885049 1.0268699
-0.43801284 -0.067332014 0.98065042
-0.43769187 -0.068815812 0.98311931
-0.44709283 -0.087554067 1.0150683
-0.43036696 -0.078971781 0.99972308
-0.43725199 -0.098848082 1.0334355
-0.43704689 -0.10087994 1.0368296
-0.43242383 -0.10803654 1.0485607
-0.43183202 -0.10971387 1.0513383
-0.44056493 -0.15430613 1.1265867
-0.43865925 -0.15458526 1.1269454
-0.43370724 -0.15493168 1.127242
-0.88832176 -0.026775789 0.94092596
-0.88666344 -0.027135324 0.94143105
-0.86092448 -0.024949741 0.93620956
-0.59008694 -0.10721118 1.058278
-0.50299335 -0.055554841 0.96617806
-0.49833494 -0.054567907 0.96423852
-0.48326731 -0.046049867 0.94900894
-0.47622943 -0.043114696 0.94365031
-0.48644736 -0.08133699 1.0085412
-0.45473537 -0.064554125 0.97841322
-0.46375254 -0.080293387 1.0054229
-0.46584836 -0.091207176 1.0239023
-0.45394418 -0.081153497 1.0062803
-0.43751436 -0.098520324 1.0344986
-0.43106553 -0.1032098 1.0419974
-0.45048404 -0.16357608 1.1446797
-0.44718277 -0.16190793 1.1416761
-0.43485951 -0.15277304 1.1255741
-0.93610108 -0.035344414 0.96082819
-0.89559233 -0.031717267 0.95216495
-0.87797701 -0.028476264 0.94559079
-1.0836427 -0.14091541 1.1482034
-0.59098047 -0.10692982 1.059929
-0.52182943 -0.063941598 0.9830606
-0.47945011 -0.042000417 0.94338202
-0.46201092 -0.033537425 0.92800897
-0.45650882 -0.030161476 0.92196786
-0.47307041 -0.056630377 0.96766388
-0.48498684 -0.069616318 0.99032092
-0.48368543 -0.081959739 1.0110641
-0.46931273 -0.070163518 0.99025989
-0.47717139 -0.10405369 1.0479299
-0.43974468 -0.067022398 0.98310375
-0.43745029 -0.06829574 0.9851079
-0.43840939 -0.07114619 0.98997718
-0.42412156 -0.10547128 1.0469903
-0.43394181 -0.15381949 1.129176
-1.0819368 -0.14362632 1.1562992
-0.51673299 -0.060576722 0.97868711
-0.47624022 -0.038432855 0.93855268
-0.45911604 -0.031529076 0.92574519
-0.47969505 -0.074146956 0.99922854
-0.46621615 -0.078498811 1.0057111
-0.44180217 -0.08191365 1.0098909
-0.4363336 -0.10035282 1.0407424
-0.42926186 -0.10680623 1.0512019
-0.70909572 -0.15887147 1.1603709
-0.53935665 -0.070985407 0.99953908
-0.48150826 -0.040144552 0.9432174
-0.48592347 -0.048307929 0.95738113
-0.45396459 -0.028512023 0.92158312
-0.48554301 -0.068744719 0.99205881
-0.47525609 -0.068798959 0.99144834
-0.4831304 -0.077340528 1.0064906
-0.4696008 -0.092916697 1.0320163
-0.44683784 -0.081697285 1.01141
-0.44240844 -0.09567003 1.0348346
-0.43852797 -0.094433367 1.0324696
-0.43585271 -0.093462475 1.0306382
-0.43652397 -0.096507184 1.0358542
-0.43899548 -0.10064901 1.0430564
-0.43315917 -0.10636166 1.0523583
-0.42208797 -0.1063735 1.0516223
-0.45076436 -0.16163014 1.1474119
-0.43354312 -0.14694685 1.1213021
-0.95180857 -0.011890701 0.92993742
-0.90652847 -0.03385254 0.96413422
-0.82565892 -0.02109085 0.93664551
-0.71330518 -0.16026482 1.1657615
-0.53819996 -0.069481075 0.99865466
-0.50926805 -0.054926395 0.97180265
-0.48521477 -0.048658568 0.95941508
-0.4790366 -0.065318197 0.98735785
-0.4776457 -0.07645534 1.0062326
-0.47389621 -0.074054807 1.0018765
-0.4551239 -0.060772795 0.97791469
-0.43876538 -0.06879054 0.99041134
-0.44037825 -0.078126773 1.0064315
-0.43444365 -0.091139443 1.0281785
-0.42062813 -0.075658299 1.0008224
-0.44959152 -0.15752201 1.1423464
-0.44115838 -0.14830776 1.1260494
-0.44104877 -0.14970045 1.1284143
-0.42944443 -0.14302793 1.1162219
-0.42655802 -0.14478341 1.1190075
-0.9165504 -0.031881712 0.96409231
-0.86623621 -0.021607693 0.94281596
-1.0869348 -0.13557445 1.1539072
-1.0826821 -0.1354914 1.1534512
-1.0723889 -0.13475823 1.1514379
-0.48564446 -0.06495522 0.98879552
-0.48628324 -0.066308901 0.9911564
-0.48112029 -0.065526426 0.9894377
-0.47284281 -0.062908739 0.98435223
-0.46767503 -0.068785772 0.99401546
-0.4572438 -0.061222572 0.98031807
-0.4646959 -0.074192509 1.0030366
-0.42976922 -0.072736971 0.99796927
-0.43015772 -0.074148484 1.0004104
-0.43735993 -0.14813252 1.1273954
-1.1014743 -0.12993075 1.1490183
-0.69054204 -0.14783943 1.148226
-0.54874414 -0.074899152 1.012279
-0.53355831 -0.07765922 1.0158478
-0.51866198 -0.068883508 0.99965739
-0.48115093 -0.045955557 0.95746541
-0.48759764 -0.066693068 0.99351996
-0.46950555 -0.057851955 0.97697246
-0.45742482 -0.061619584 0.98250699
-0.45428425 -0.062197182 0.9832567
-0.45424196 -0.071954042 0.99998438
-0.46893841 -0.08917293 1.0306376
-0.46294445 -0.087287158 1.0269445
-0.4411763 -0.07578145 1.005546
-0.43429106 -0.07131467 0.99735856
-0.43216154 -0.07091976 0.99651814
-0.44404319 -0.096705645 1.0416461
-0.42371309 -0.075108998 1.003054
-0.42574233 -0.07954561 1.0108175
-0.43637684 -0.10974173 1.0634125
-0.4236761 -0.10288683 1.0506843
-0.45002505 -0.15979953 1.1502972
-0.92175281 -0.029953323 0.96643561
-0.82220554 -0.023484647 0.94739532
-1.0865982 -0.13708149 1.1638403
-1.0990973 -0.14330198 1.1755356
-1.0930998 -0.14270379 1.1740298
-0.69646478 -0.14791948 1.1514803
-0.55147725 -0.089423865 1.0393212
-0.48198563 -0.045941684 0.95899141
-0.46861225 -0.039084978 0.9461323
-0.48402625 -0.060704216 0.98455119
-0.48798281 -0.065482855 0.99308676
-0.46642661 -0.054696906 0.97281742
-0.48965061 -0.079238787 1.016885
-0.45573723 -0.062047277 0.98461342
-0.46592367 -0.085537657 1.025836
-0.43635291 -0.062720947 0.98423195
-0.43886811 -0.070819721 0.99836493
-0.42607683 -0.079336874 1.0120013
-0.43016112 -0.094069637 1.0376722
-0.42116547 -0.086162694 1.0233541
-0.43048841 -0.1051367 1.056738
-0.42745733 -0.10238478 1.0517627
-0.42338908 -0.099425904 1.0463489
-0.42307588 -0.10515135 1.0561742
-0.43399239 -0.14468987 1.125064
-0.90695798 -0.02344691 0.95663559
-0.93415117 -0.0337735 0.97669792
-0.85577488 -0.018985523 0.94472229
-0.86437917 -0.031036669 0.96623141
-1.1035321 -0.13810286 1.170717
-0.69051832 -0.14208201 1.1435919
-0.60372269 -0.10800156 1.0776234
-0.53131306 -0.078107253 1.0200644
-0.49023885 -0.066591486 0.99680692
-0.43358076 -0.067471094 0.99366188
-0.43150461 -0.066198193 0.99129397
-0.42361999 -0.064155973 0.98711997
-0.4278779 -0.081903301 1.0181032
-0.43868661 -0.099278703 1.0489837
-0.45138061 -0.158574 1.1523753
-0.43164533 -0.14350477 1.1247407
-0.83139503 -0.026484262 0.95804399
-1.1036098 -0.13771512 1.1738454
-1.0942576 -0.13737017 1.1724516
-1.0999703 -0.14030276 1.1780167
-1.0878713 -0.1403216 1.1770191
-0.59825665 -0.10457173 1.0734185
-0.49952298 -0.072316617 1.009154
-0.45010552 -0.065206751 0.99263358
-0.43076426 -0.055915628 0.97489697
-0.43569756 -0.063566916 0.98856705
-0.42856163 -0.063399546 0.98766953
-0.43068218 -0.068477474 0.99664372
-0.42361677 -0.063577779 0.98755711
-0.44451663 -0.096374571 1.046132
-0.42714369 -0.089063205 1.0319914
-0.42148679 -0.1016903 1.0533764
-0.93735242 0.00078165444 0.92239416
-0.84075963 -0.02553257 0.95961231
-1.0931716 -0.115465 1.1380798
-0.70267671 -0.14583984 1.1564862
-0.69012737 -0.14314398 1.1506977
-0.50235456 -0.075606182 1.0168285
-0.46724138 -0.061748479 0.98966122
-0.46234137 -0.05923498 0.98486292
-0.4543072 -0.058915962 0.98360151
-0.45060146 -0.065954804 0.99550498
-0.45587671 -0.072842196 1.0079356
-0.46315554 -0.082796425 1.0258712
-0.43156654 -0.065082408 0.99231398
-0.42870659 -0.074457116 1.0083503
-0.42727637 -0.078922532 1.0159827
-0.85517681 -0.023502585 0.95981562
-0.84466028 -0.023249205 0.95841813
-0.85346425 -0.029671337 0.97041327
-1.0977101 -0.13514912 1.1764786
-0.50068194 -0.077192739 1.0211881
-0.48241654 -0.063468426 0.99560404
-0.46992815 -0.06253989 0.99285042
-0.46182573 -0.059849117 0.98742354
-0.45439571 -0.056702394 0.98126292
-0.45028949 -0.055542994 0.97886866
-0.43331891 -0.065407403 0.9945218
-0.43440312 -0.072261579 1.0065683
-0.42915356 -0.072369359 1.0062791
-0.43254295 -0.086613841 1.0314178
-0.4341175 -0.090682186 1.0386528
-0.42242402 -0.09921091 1.0524571
-0.43098852 -0.13572106 1.1168793
-0.88492286 -0.023179704 0.96451485
-1.0884647 -0.1155958 1.1452336
-1.1007905 -0.13442419 1.1793194
-0.59037369 -0.11521192 1.0978523
-0.48823556 -0.049537286 0.97341239
-0.50510794 -0.076322883 1.0218413
-0.51874489 -0.090827867 1.0484886
-0.47506535 -0.056935742 0.98511684
-0.48031366 -0.061965972 0.99440664
-0.46781528 -0.063530654 0.99597108
-0.44840845 -0.061755825 0.99104714
-0.45679462 -0.072433993 1.0105091
-0.44499248 -0.072145119 1.0088971
-0.4330661 -0.064547069 0.99449009
-0.43016532 -0.071905874 1.0070882
-0.4193812 -0.06950026 1.0018697
-0.42328945 -0.091400407 1.0405383
-0.42330226 -0.096111901 1.0487797
-0.44207841 -0.14056729 1.1282907
-0.43451446 -0.13870013 1.1243157
-0.43076706 -0.14235668 1.1303595
-0.85701489 -0.016820487 0.95322984
-1.0890033 -0.13418302 1.1816009
-1.0984409 -0.13821448 1.1895876
-0.48632318 -0.066110685 1.0038819
-0.46880901 -0.062014341 0.99500048
-0.46790308 -0.063827381 0.99809432
-0.447887 -0.04976644 0.97148567
-0.45614386 -0.077849105 1.021562
-0.43461818 -0.062806375 0.99308461
-0.41045144 -0.057575259 0.98156881
-0.42038578 -0.07108634 1.0062377
-0.4284727 -0.087053232 1.0350375
-0.43235773 -0.14090373 1.1299073
-0.93883514 0.0063195219 0.92310679
-1.1128583 -0.11904624 1.1611564
-1.0917854 -0.11563832 1.1530576
-1.095994 -0.13584593 1.1890538
-0.69883996 -0.14261466 1.1614124
-0.59522241 -0.11348133 1.0998
-0.5869239 -0.12296999 1.1156789
-0.52783966 -0.091466039 1.0543287
-0.51139814 -0.080668509 1.0336812
-0.49988145 -0.072611332 1.0183487
-0.49445701 -0.072806269 1.0181516
-0.46702218 -0.054058988 0.98241293
-0.47277749 -0.062991634 0.99871278
-0.47140336 -0.064430133 1.0011085
-0.44830602 -0.054455433 0.98124671
-0.44491526 -0.053878654 0.97989357
-0.45810378 -0.073326066 1.0154458
-0.46039882 -0.077443615 1.0229238
-0.46005091 -0.08004427 1.0274677
-0.44511953 -0.07197085 1.0117666
-0.43273419 -0.063010849 0.99475819
-0.43781847 -0.073100314 1.0130279
-0.43146661 -0.086702727 1.0363432
-0.42176253 -0.096401788 1.0524527
-0.4492619 -0.15078475 1.1509371
-0.44757581 -0.14995568 1.1493095
-0.44370687 -0.14753266 1.1446583
-0.43319568 -0.13986853 1.130118
-1.0881596 -0.12708832 1.1766603
-0.70763099 -0.14658827 1.1720858
-0.61757427 -0.12428264 1.1234497
-0.45539969 -0.021127796 0.9246034
-0.47386467 -0.061528563 0.99786222
-0.47620243 -0.064322203 1.0030369
-0.46630412 -0.062028144 0.99796951
-0.44609287 -0.051865552 0.97794539
-0.44788572 -0.056844551 0.98692429
-0.4395116 -0.07134223 1.0116749
-0.43443939 -0.079883002 1.0262415
-0.42559567 -0.077010326 1.0202602
-0.42064857 -0.074277736 1.014926
-0.41397056 -0.067315452 1.0019428
-0.44854856 -0.15055887 1.1525329
-0.44288331 -0.14401589 1.1403942
-1.1186638 -0.0021774648 0.96232045
-1.1277621 -0.0041828845 0.96683455
-1.1267517 -0.0064822678 0.97080326
-1.0955374 -0.0038296026 0.96280897
-0.86339998 -0.014998656 0.9581151
-1.114059 -0.11729141 1.1658547
-1.0910652 -0.13234133 1.1901023
-1.0869956 -0.13235985 1.1897058
-0.62039489 -0.12293237 1.1237737
-0.45875639 -0.017900445 0.92057061
-0.45697308 -0.021670049 0.92706347
-0.59005976 -0.12334825 1.1213106
-0.50819278 -0.074885756 1.0267826
-0.49670267 -0.069604591 1.0162104
-0.4449603 -0.052729432 0.98084372
-0.45741588 -0.07421197 1.0202318
-0.43507615 -0.059678841 0.99211764
-0.43586314 -0.077741124 1.024213
-0.41486666 -0.067808859 1.0043947
-0.42241627 -0.08109381 1.0287365
-0.43187267 -0.13795696 1.1305144
-1.104208 0.0010656603 0.95818198
-1.1046989 -0.0053344551 0.96961629
-0.58393401 -0.094139948 1.0710517
-0.46094841 -0.023209428 0.93158007
-0.48888063 -0.04676941 0.97650522
-0.51339811 -0.075367838 1.0300196
-0.51857847 -0.081111133 1.0407946
-0.50214309 -0.072219193 1.0231999
-0.453067 -0.040919088 0.96221751
-0.45087582 -0.041395776 0.9628275
-0.44687146 -0.046528731 0.97152084
-0.44394132 -0.050387625 0.97806519
-0.45474303 -0.065447643 1.0060172
-0.41718531 -0.064046256 0.9994517
-0.42048985 -0.089274772 1.0446728
-0.4463284 -0.14583062 1.1480459
-0.43407065 -0.13587125 1.1290061
-1.1104777 -0.0039607761 0.97100008
-0.49223799 -0.036722112 0.96055281
-0.46820009 -0.024961745 0.93689096
-0.49178699 -0.048158199 0.9809069
-0.45930481 -0.044576351 0.97089612
-0.45113993 -0.039529063 0.96098083
-0.44955313 -0.038988717 0.95983988
-0.44347394 -0.037705176 0.95687228
-0.44085661 -0.043069623 0.96615189
-0.44272667 -0.048705924 0.97641665
-0.4222874 -0.060641099 0.99543363
-0.41919738 -0.065775879 1.0042506
-0.41803128 -0.079897366 1.0293164
-0.41957712 -0.089793183 1.0471449
-0.69187897 -0.13296491 1.1572529
-0.48370564 -0.032620896 0.95379269
-0.51169574 -0.074420244 1.0318251
-0.45268726 -0.040945806 0.96514601
-0.44582888 -0.039091997 0.96104246
-0.45293814 -0.061616171 1.0021788
-0.45661479 -0.067732021 1.0135481
-0.46153617 -0.080104128 1.0362598
-0.42535096 -0.059655625 0.99551183
-0.42185777 -0.069227807 1.0122482
-0.44140849 -0.14037864 1.1418595
-0.43290335 -0.1326905 1.1271229
-1.0988209 0.0026566572 0.96419579
-1.0976028 0.0012498462 0.96657962
-0.93220854 0.011939279 0.92795151
-1.1060739 -0.10754676 1.1629968
-1.1264544 -0.11994758 1.1876652
-1.1062319 -0.12045288 1.1861975
-0.50062829 -0.051411614 0.99104905
-0.4966166 -0.050982416 0.98980689
-0.50654358 -0.072508305 1.0296381
-0.46130359 -0.045732293 0.97622859
-0.44813544 -0.04042349 0.96514612
-0.43723446 -0.039538465 0.96227598
-0.4473713 -0.05334321 0.98826301
-0.45582494 -0.065435424 1.0109762
-0.4607448 -0.078656182 1.0353014
-0.42796233 -0.066596158 1.0097883
-0.4211202 -0.061954278 1.0006467
-0.40958008 -0.0611852 0.99790984
-1.1246564 0.013255258 0.95138359
-1.1307521 0.0063222926 0.96461314
-0.48309758 -0.031000111 0.9538393
-0.50181776 -0.044647515 0.98069119
-0.47138906 -0.025343409 0.94223362
-0.50379437 -0.054496065 0.99867916
-0.51979578 -0.079902157 1.0463959
-0.48325968 -0.057471216 1.0015669
-0.47664019 -0.053178519 0.99303263
-0.45853707 -0.042923871 0.97236967
-0.44424888 -0.04040461 0.96610779
-0.455073 -0.063196018 1.0084882
-0.42208004 -0.051487509 0.98341089
-0.42877361 -0.066872589 1.0119454
-0.42474836 -0.065376334 1.0087637
-0.42766705 -0.071596391 1.0203255
-0.42760453 -0.072540112 1.0220188
-0.42636877 -0.077348746 1.0305364
-0.42587575 -0.077832423 1.0313487
-1.1330843 0.0159746 0.95071501
-0.59535992 -0.10402757 1.101289
-0.48126101 -0.033310298 0.95931107
-0.50952595 -0.057752654 1.0070034
-0.50704664 -0.067863315 1.0249808
-0.49869886 -0.066009521 1.0205972
-0.45280898 -0.037789457 0.96389598
-0.43677151 -0.041867945 0.96929002
-0.46066993 -0.068590045 1.0205654
-0.46141124 -0.073056847 1.0287346
-0.42709875 -0.052552167 0.98741585
-0.42490578 -0.071917005 1.0221633
-0.43298894 -0.1336164 1.1347363
-0.43007684 -0.13392338 1.1349317
-0.87462103 0.021029161 0.9120543
-0.60111326 -0.10577083 1.1075007
-0.50907999 -0.068630174 1.0284579
-0.50819689 -0.070648462 1.0320083
-0.47553524 -0.058470622 1.0057766
-0.45929495 -0.048590217 0.98579276
-0.42928839 -0.036936007 0.96084756
-0.44143724 -0.055476401 0.99602669
-0.42580056 -0.055067081 0.99330419
-0.43041915 -0.061693344 1.0059121
-0.42834201 -0.072131209 1.0245882
-0.42829809 -0.073104046 1.0263479
-0.42499927 -0.072434656 1.0247157
-0.4265126 -0.079468317 1.0376697
-1.1212749 0.019938689 0.94845271
-1.1272945 0.01778706 0.95315063
-1.1364982 0.015258444 0.95894796
-1.0884106 0.014584395 0.9539386
-1.0891402 0.011487613 0.95967138
-0.86995709 0.022114696 0.91189748
-1.0982242 -0.11764974 1.1959597
-0.50892615 -0.049560204 0.99556792
-0.48287201 -0.060213268 1.0115842
-0.46211234 -0.050273228 0.99079478
-0.44088286 -0.042765651 0.9743731
-0.42844602 -0.039483912 0.96678537
-0.43165219 -0.051566456 0.98919886
-0.43143821 -0.069889866 1.0225312
-0.42760509 -0.067685552 1.0180207
-0.37273923 -0.14346093 1.1488633
-0.37170386 -0.14310527 1.1480817
-0.36015266 -0.14467511 1.1494416
-1.0689163 0.014460162 0.9547168
-0.89844286 -0.0014931643 0.96122324
-0.62855214 -0.11042506 1.1243821
-0.61232299 -0.11103575 1.1233426
-0.61465627 -0.1147044 1.1303545
-0.51046652 -0.049873754 0.99808609
-0.51635385 -0.054526508 1.0073676
-0.50868398 -0.069534212 1.0337653
-0.50588477 -0.068350598 1.0312313
-0.49622402 -0.062886104 1.019966
-0.4722833 -0.056225479 1.0046192
-0.46512902 -0.052100111 0.99613291
-0.42947295 -0.043060649 0.97488487
-0.42834061 -0.044435728 0.97724658
-0.42798293 -0.044916708 0.97807771
-0.4324308 -0.066398181 1.0179107
-0.43264127 -0.067597218 1.0201291
-0.36142761 -0.14518264 1.1524061
-0.35728034 -0.14554936 1.1525254
-1.1174204 0.020023307 0.95420843
-1.0632696 0.014944778 0.95615804
-0.9600172 0.015408554 0.94127548
-0.95245254 0.01577004 0.93958485
-0.93643379 0.0037362217 0.9594661
-0.9185909 0.0017410743 0.96069819
-0.52424437 -0.073743477 1.0454694
-0.47498381 -0.057734817 1.0094305
-0.4653886 -0.055010457 1.0031326
-0.42668194 -0.0560208 0.99972421
-0.44134384 -0.13190208 1.1408091
-0.35833547 -0.14315709 1.1501584
-0.35646939 -0.1426838 1.1490372
-1.0883148 0.01629414 0.96025181
-0.95851433 0.016758712 0.9413501
-0.88357592 0.0059714741 0.95077151
-0.50571436 -0.061540172 1.0224069
-0.49811226 -0.057764411 1.0144054
-0.47130036 -0.058370605 1.0117924
-0.45414633 -0.051630948 0.9970113
-0.4466244 -0.047607798 0.98856586
-0.4337011 -0.045855317 0.98354572
-0.43365169 -0.046638343 0.98497909
-0.43228531 -0.053025562 0.99653691
-0.43130255 -0.052939001 0.99624103
-0.44330561 -0.071543619 1.0321289
-0.4374367 -0.070425458 1.0292563
-0.43617493 -0.070090525 1.0284648
-0.43671238 -0.097019672 1.0780697
-0.37594444 -0.12886789 1.1281984
-0.37511757 -0.13087581 1.1317765
-0.37275812 -0.13541263 1.1397928
-0.36078021 -0.14452779 1.1548928
-1.0808845 0.020659212 0.95431995
-1.0860887 0.017116461 0.96159828
-1.0707679 0.016643913 0.96029198
-0.92856443 0.01995308 0.93396515
-0.63753361 -0.11499995 1.1416484
-0.52204269 -0.056063816 1.0164565
-0.4855231 -0.063018695 1.0240996
-0.48388281 -0.062603161 1.0230994
-0.47289526 -0.058143482 1.0133065
-0.45097098 -0.04994427 0.99505699
-0.4351967 -0.054384518 1.0010089
-0.44232571 -0.06793721 1.0270349
-0.44290644 -0.069500893 1.0300033
-0.43294489 -0.074093558 1.037063
-0.40911308 -0.051433031 0.991853
-0.44157541 -0.13368523 1.1482704
-0.43996403 -0.13295481 1.1466931
-0.37624484 -0.1288854 1.1301228
-0.37363276 -0.13082036 1.1333224
-1.1147046 0.020578874 0.96253169
-1.0878227 0.01823936 0.96295696
-0.88858998 0.025817225 0.91996402
-0.89514375 0.021822123 0.92831504
-0.92021513 0.014359303 0.94577956
-0.93916261 0.0067533418 0.96261913
-0.939749 0.0052614827 0.9654671
-0.88049841 0.0079643177 0.9518494
-0.52532995 -0.060792431 1.0275533
-0.53084928 -0.065292656 1.0366894
-0.48665333 -0.048146054 0.99851179
-0.47507828 -0.059241921 1.0173776
-0.46777132 -0.057590712 1.0132576
-0.45734611 -0.053107712 1.0034403
-0.43399814 -0.040118638 0.97599232
-0.44411203 -0.06811437 1.0293072
-0.44058514 -0.09907458 1.0861293
-0.42776594 -0.12536103 1.1329454
-0.37239525 -0.13331248 1.1396221
-0.36890078 -0.13742921 1.1467379
-1.070333 0.020755814 0.95888484
-0.90109301 0.020786835 0.93368816
-0.52221859 -0.054707229 1.0176963
-0.52060562 -0.055297196 1.0185529
-0.50369805 -0.05711019 1.0194105
-0.47835854 -0.06209451 1.0249085
-0.45220441 -0.053150315 1.0044031
-0.43219584 -0.049418841 0.99449712
-0.44291615 -0.070184171 1.0346764
-0.43342087 -0.07541851 1.0429927
-0.44258097 -0.10198576 1.0937217
-0.42791498 -0.087842137 1.0652609
-0.43080819 -0.12305631 1.131127
-0.36116725 -0.14370781 1.1591581
-0.36012211 -0.14557597 1.1624743
-1.0774117 0.024201641 0.95668131
-1.0934074 0.017261792 0.97204882
-0.90992665 0.020627758 0.93793064
-0.93292582 0.013405294 0.95488787
-0.91241729 0.008347936 0.96120596
-0.53258151 -0.063160688 1.0369059
-0.48419958 -0.045064896 0.99582225
-0.4575333 -0.054555748 1.0094728
-0.45567647 -0.053817887 1.0078152
-0.43788111 -0.04161017 0.98235208
-0.44765255 -0.068371937 1.0337356
-0.44990325 -0.073567957 1.0437657
-0.44702864 -0.087531693 1.0693668
-0.42311323 -0.066387661 1.026312
-0.43788046 -0.090902574 1.074264
-0.37651399 -0.12755534 1.1332961
-0.93350637 0.023070768 0.93966305
-0.91881061 0.020491822 0.94221115
-0.90504515 0.021106472 0.93892789
-0.87101173 0.014633556 0.94576526
-0.53658795 -0.064979985 1.0429034
-0.50696892 -0.057960212 1.0251791
-0.50638801 -0.058400303 1.0259126
-0.45422077 -0.053641502 1.0089246
-0.43853027 -0.048187707 0.99628884
-0.45184296 -0.075842842 1.0500962
-0.43792897 -0.090270035 1.0749341
-0.43191814 -0.089007422 1.0716403
-0.42096609 -0.080325387 1.0536984
-0.44112706 -0.13452627 1.1582358
-0.3890101 -0.13396142 1.1491027
-0.94709265 0.034012496 0.92399383
-0.92370737 0.026081599 0.93518472
-0.91425157 0.026661312 0.93260038
-0.90930557 0.026672592 0.93179667
-0.90877521 0.023587881 0.93750441
-0.91416979 0.022219872 0.94092625
-0.61621624 -0.09418276 1.1123381
-0.4852722 -0.046859115 1.0027714
-0.43300498 -0.035398576 0.97298533
-0.44696844 -0.065427527 1.0315742
-0.44812125 -0.087320857 1.0728618
-0.434324 -0.079820253 1.0565965
-0.42443559 -0.069705553 1.0360416
-0.41557258 -0.061630357 1.0194782
-0.42764825 -0.08552447 1.0662502
-0.46245325 -0.14076571 1.1754731
-0.45974267 -0.14186107 1.1771008
-0.45080334 -0.13621826 1.1650921
-0.4480499 -0.13405564 1.1605961
-0.44215089 -0.13059737 1.15317
-0.37970191 -0.12370226 1.1303446
-0.93502378 0.03459917 0.92365301
-0.93795323 0.027316645 0.93784642
-0.93264878 0.026048653 0.93937886
-0.89986002 0.02833893 0.92976999
-0.60997897 -0.091582164 1.1089002
-0.45147982 -0.067183927 1.0373424
-0.44472796 -0.064511776 1.0312179
-0.43925619 -0.064865291 1.0310005
-0.44280189 -0.075558543 1.0517193
-0.43356505 -0.072979592 1.0453691
-0.42535833 -0.072219722 1.0426124
-0.45822066 -0.13905784 1.1738428
-0.3811453 -0.12060159 1.1266265
-0.53271526 -0.060156353 1.0392053
-0.48497087 -0.042954534 0.99881923
-0.43111008 -0.039653827 0.98370653
-0.45175391 -0.066777885 1.0383867
-0.44689554 -0.065969303 1.0360577
-0.44414157 -0.064246923 1.0323478
-0.40480214 -0.031937819 0.96478522
-0.43099895 -0.084730521 1.0689081
-0.43046701 -0.10769963 1.1122448
-0.43215853 -0.11407866 1.1245835
-0.38047931 -0.11010161 1.1085514
-0.95278466 0.024473183 0.95123255
-0.61486918 -0.12418066 1.1764694
-0.43430534 -0.035584021 0.97805101
-0.43585813 -0.037712369 0.98234975
-0.43614152 -0.088927463 1.079559
-0.43136114 -0.087971613 1.0769423
-0.44003794 -0.12838013 1.1550603
-0.38178504 -0.11365709 1.1173408
-0.89809418 0.043594237 0.90830159
-0.96545279 0.023386773 0.95831227
-0.95551968 0.023950573 0.95553708
-0.53242236 -0.057578348 1.0382544
-0.53714806 -0.061411001 1.0463605
-0.57417709 -0.087787077 1.102918
-0.43213153 -0.03545076 0.97894579
-0.43292782 -0.036933813 0.98190564
-0.45493266 -0.070411608 1.0494087
-0.4206363 -0.059968907 1.0236523
-0.43746665 -0.089779168 1.0832869
-0.89386785 0.045059677 0.90731168
-0.89863503 0.032118347 0.93286723
-0.54251087 -0.063123822 1.052613
-0.57557821 -0.087780505 1.1054925
-0.61178011 -0.12004209 1.1734477
-0.43412066 -0.036611635 0.98303241
-0.43117651 -0.038781557 0.98666352
-0.45050794 -0.05709501 1.0250257
-0.43375909 -0.054976497 1.0180532
-0.43678141 -0.063681267 1.0352104
-0.43318841 -0.085267216 1.0758203
-0.45106733 -0.11672962 1.1390485
-0.3867406 -0.1201456 1.1343385
-0.93375695 0.037119128 0.93217349
-0.93094862 0.022732215 0.95925421
-0.86485779 0.029619168 0.93428624
-0.63643324 -0.10732873 1.1561613
-0.63470364 -0.10740298 1.1559957
-0.60788709 -0.11300406 1.1619595
-0.61052257 -0.11934002 1.1745752
-0.50976604 -0.060774218 1.0443642
-0.43279102 -0.039648894 0.99016279
-0.43327439 -0.05479819 1.0192909
-0.43192708 -0.085425779 1.0777663
-0.46314058 -0.12780204 1.1645609
-0.44590652 -0.10965293 1.1266999
-0.44330463 -0.14148705 1.187265
-0.41663563 -0.13763776 1.1751381
-0.38124722 -0.11582956 1.1270306
-0.92891157 0.030608699 0.94655973
-0.84611416 0.038290452 0.91676342
-0.85096359 0.035971854 0.92210358
-0.89092028 0.029055154 0.94265735
-0.60495818 -0.082024515 1.1044822
-0.63851386 -0.10210042 1.1491905
-0.62220055 -0.10328121 1.1485032
-0.59993881 -0.095062956 1.128655
-0.60386193 -0.11389317 1.1655918
-0.59540647 -0.11166038 1.1597627
-0.44334763 -0.043431465 1.0009235
-0.42724839 -0.10937189 1.1248589
-0.42377043 -0.14150445 1.1860443
-0.35831156 -0.13684323 1.1652039
-0.86002505 0.049311992 0.90050745
-0.91635263 0.041161768 0.92664957
-0.94723153 0.037258826 0.93989003
-0.96812057 0.030428518 0.956936
-0.62127274 -0.10171284 1.1479537
-0.60519534 -0.10049085 1.142624
-0.58121836 -0.089627072 1.1172205
-0.60065645 -0.10963939 1.1594471
-0.51341504 -0.061807137 1.0509846
-0.44892967 -0.13031615 1.1713297
-0.44485533 -0.1264471 1.1631074
-0.42697591 -0.10967287 1.1274203
-0.42921728 -0.14238124 1.1909796
-0.41752243 -0.13584951 1.1762089
-0.38351586 -0.11895512 1.1373099
-0.35944483 -0.13462166 1.1631073
-0.88370407 0.049576547 0.9068886
-0.84321773 0.041155711 0.91558397
-0.63176656 -0.1004338 1.1501018
-0.61835986 -0.10325572 1.1530459
-0.60189807 -0.10721399 1.1576167
-0.43317062 -0.081369355 1.0757957
-0.43210632 -0.082429677 1.0776496
-0.44408414 -0.10258894 1.1189591
-0.44016171 -0.13621968 1.1833755
-0.42284754 -0.14020033 1.1878293
-0.37796172 -0.10584718 1.1128285
-0.35813865 -0.13284925 1.1614107
-0.2990739 -0.04484893 0.97980863
-0.87706435 0.042221863 0.92244637
-0.63386708 -0.098484218 1.1494075
-0.62081575 -0.096249849 1.1425627
-0.61683983 -0.099185005 1.1475074
-0.60265243 -0.10122298 1.1487513
-0.60338432 -0.10605985 1.1582953
-0.59343868 -0.10736513 1.1589273
-0.59155637 -0.10723118 1.1583062
-0.49756497 -0.046111405 1.0214688
-0.43643457 -0.036473501 0.99101788
-0.43022102 -0.083013684 1.0803101
-0.42761022 -0.11190748 1.1359848
-0.38557225 -0.11983798 1.1433486
-0.38351819 -0.11764053 1.1386827
-0.37661752 -0.10763618 1.1179103
-0.30162743 -0.047343846 0.9863221
-0.30028293 -0.047914919 0.98717481
-0.29694569 -0.038929921 0.9690668
-0.29270384 -0.028751345 0.94846493
-0.29193175 -0.029107394 0.94900924
-0.29124659 -0.029940547 0.95049781
-0.865224 0.052264251 0.90311688
-0.95104587 0.035146184 0.953255
-0.85229397 0.039207358 0.92606968
-0.62123126 -0.092373684 1.1377238
-0.59057778 -0.10010807 1.146835
-0.42956811 -0.033090223 0.98467368
-0.44786417 -0.097935207 1.1147591
-0.41490185 -0.062309682 1.0388221
-0.45069236 -0.11570405 1.149979
-0.33116826 -0.05938476 1.0167829
-0.33056322 -0.059392866 1.0166808
-0.3049438 -0.04440194 0.98243541
-0.29451656 -0.033356994 0.95885211
-0.92022836 0.046844453 0.92712569
-0.86570239 0.042077523 0.92563486
-0.94609928 0.02635246 0.97238445
-0.62167674 -0.09162648 1.1389817
-0.61738378 -0.098555863 1.151697
-0.59307152 -0.104031 1.1575907
-0.5944646 -0.10605663 1.1618334
-0.50496316 -0.053839501 1.0418257
-0.44810092 -0.062407538 1.0473136
-0.41695637 -0.065112732 1.0464276
-0.42758262 -0.089221358 1.0957414
-0.43554401 -0.11253519 1.14297
-0.42412114 -0.11135259 1.1383868
-0.31766754 -0.059116002 1.0149755
-0.31455845 -0.054366808 1.0050595
-0.3042298 -0.051434945 0.99726862
-0.30222961 -0.056219202 1.0062391
-0.93600965 0.039654866 0.94716215
-0.87170649 0.043568429 0.9264828
-0.87535763 0.038489338 0.93720037
-0.89049745 0.033651952 0.94976377
-0.9104389 0.029293224 0.96235681
-0.63541573 -0.096258178 1.1535021
-0.6202811 -0.090861291 1.1398402
-0.61503661 -0.088901564 1.1349301
-0.61581057 -0.096614778 1.1502424
-0.51776105 -0.060053837 1.058596
-0.44978195 -0.062350482 1.0493768
-0.44613519 -0.060839832 1.0456718
-0.44052595 -0.058346584 1.0396397
-0.44455546 -0.091477789 1.1055545
-0.44495887 -0.093144752 1.1089114
-0.41935331 -0.070504673 1.0592526
-0.43739462 -0.092963323 1.1070269
-0.42786121 -0.090103284 1.0994812
-0.43033206 -0.10911788 1.137343
-0.42118654 -0.10652547 1.1304017
-0.41227406 -0.12365891 1.1622676
-0.35929117 -0.12886631 1.1617969
-0.31715047 -0.046595003 0.99162632
-0.31583968 -0.047538977 0.99321634
-0.31613353 -0.050186362 0.9984777
-0.31299064 -0.050521325 0.998501
-0.31047016 -0.047284927 0.99163252
-0.30620524 -0.042870846 0.98209757
-0.30532047 -0.043290984 0.9827444
-0.30462974 -0.050640564 0.99704641
-0.30366138 -0.050871577 0.99730462
-0.30049089 -0.055009287 1.0047945
-0.86315143 0.040939089 0.93249947
-0.61320502 -0.095126987 1.1494468
-0.58947575 -0.084077999 1.1227823
-0.57232076 -0.08757019 1.1261432
-0.44322616 -0.088064589 1.100588
-0.43078429 -0.09050402 1.1028414
-0.43149996 -0.093884423 1.1096544
-0.42774546 -0.10356553 1.1279734
-0.38150287 -0.10281377 1.1169877
-0.31470084 -0.050456535 1.0000139
-0.31352028 -0.048335295 0.9955886
-0.31290534 -0.048061531 0.99492234
-0.8672241 0.046081249 0.92576802
-0.83892608 0.045823522 0.92036271
-0.87893236 0.039560135 0.94112056
-0.86725259 0.039147113 0.9394964
-0.90821791 0.02921892 0.96770734
-0.59641945 -0.079316974 1.1173199
-0.49152189 -0.042526692 1.0225856
-0.44140685 -0.096233793 1.1183947
-0.43383777 -0.096037105 1.1164232
-0.43483597 -0.098556504 1.1216177
-0.43398219 -0.10411735 1.132444
-0.42639107 -0.10105447 1.1247959
-0.42562312 -0.10139666 1.1253126
-0.41265917 -0.12279291 1.1649452
-0.32092801 -0.036810767 0.97561365
-0.31479627 -0.038686033 0.97804302
-0.3148407 -0.043657761 0.98789126
-0.312327 -0.044013035 0.98806888
-0.90328431 0.051523149 0.9252125
-0.89099872 0.046354886 0.93286526
-0.84974873 0.047269214 0.92228031
-0.59317774 -0.07845974 1.1174421
-0.58502299 -0.079547897 1.1178697
-0.4852252 -0.033021167 1.0042498
-0.4377557 -0.081694953 1.0908273
-0.43711704 -0.10062927 1.1282961
-0.42755467 -0.13348775 1.1915221
-0.38035339 -0.1010378 1.1170405
-0.37842572 -0.10735163 1.1291703
-0.36140248 -0.1301104 1.1707516
-0.32416287 -0.039254647 0.9823907
-0.3202531 -0.03604136 0.97517776
-0.3143051 -0.04161435 0.98498154
-0.31169787 -0.046840142 0.99480605
-0.30867475 -0.045384046 0.99127144
-0.30387819 -0.040540781 0.98063284
-0.91777086 0.042889893 0.94824302
-0.88810563 0.045364987 0.93689752
-0.88445461 0.040434521 0.94593573
-0.86315143 0.040508505 0.94118345
-0.64012355 -0.092587397 1.1582592
-0.58276856 -0.077284932 1.1153613
-0.48922041 -0.036473915 1.0137973
-0.44097465 -0.039365802 1.0091329
-0.44468623 -0.056815043 1.0447147
-0.43989298 -0.054194346 1.038455
-0.43632534 -0.082859159 1.0948179
-0.44523019 -0.095417075 1.1217728
-0.43536884 -0.092636377 1.1140989
-0.42809677 -0.10047883 1.1281583
-0.42689577 -0.10026494 1.1274724
-0.42358005 -0.12835909 1.1827523
-0.32002017 -0.040861141 0.98596901
-0.31768385 -0.045058426 0.99382997
-0.30219057 -0.041315656 0.98302108
-0.30291113 -0.060162794 1.0207424
-0.89926124 0.056235705 0.92030084
-0.85279191 0.057044119 0.90847248
-0.84580791 0.048002291 0.92502463
-0.9579618 0.035328586 0.975021
-0.85104835 0.04406384 0.93405426
-0.45163003 0.012572489 0.90927953
-0.57757694 -0.081106469 1.1243446
-0.6009956 -0.10201895 1.1713226
-0.44520903 -0.090950124 1.1149486
-0.44083405 -0.088437743 1.1089617
-0.44605857 -0.096871026 1.1269792
-0.44781309 -0.10016724 1.1339582
-0.40292752 -0.061636407 1.0470204
-0.4186278 -0.083750948 1.0947069
-0.42650548 -0.12227871 1.1735064
-0.41131881 -0.11370841 1.1530257
-0.38052201 -0.098475873 1.1157883
-0.38054049 -0.10010922 1.1190597
-0.38056472 -0.1017731 1.1223934
-0.3244684 -0.037854772 0.98220867
-0.32302177 -0.036941972 0.98006481
-0.31992334 -0.035822 0.9771437
-0.32119399 -0.043740612 0.99326271
-0.31805596 -0.047438812 0.99997085
-0.30239508 -0.041856062 0.98536211
-0.30177245 -0.043383624 0.98828095
-0.30160293 -0.0469626 0.99540287
-0.30220819 -0.051892709 1.0053977
-0.85322952 0.061114412 0.90290034
-0.44929779 0.014798812 0.90566278
-0.45088017 0.012975304 0.90967691
-0.59731787 -0.077014878 1.1230429
-0.59976238 -0.080364898 1.1303142
-0.58684081 -0.079790473 1.1262749
-0.50071627 -0.044193532 1.0355767
-0.4394775 -0.034442876 1.0023241
-0.44308347 -0.054002807 1.0423969
-0.43939108 -0.05618605 1.0459551
-0.42761114 -0.049433488 1.0297681
-0.406973 -0.06833373 1.0631015
-0.42206258 -0.11358374 1.1573131
-0.42224997 -0.12319116 1.1766423
-0.37877205 -0.094667837 1.1096697
-0.3792817 -0.1036831 1.1278821
-0.31977114 -0.050512906 1.007849
-0.3188602 -0.049473222 1.0055584
-0.31060091 -0.040290978 0.98527986
-0.30257475 -0.042289507 0.98749942
-0.86104846 0.061437588 0.90651214
-0.88478434 0.049415052 0.93612254
-0.87827003 0.049483493 0.93450606
-0.4497599 0.015065669 0.906587
-0.61139905 -0.074132249 1.122991
-0.615143 -0.10657131 1.1891986
-0.51974839 -0.05591331 1.0654807
-0.43944037 -0.033010755 1.0011084
-0.43768999 -0.033143196 1.000978
-0.4447031 -0.055780157 1.0481786
-0.44538486 -0.097117223 1.1316187
-0.44375286 -0.096501984 1.1300087
-0.43433177 -0.090471566 1.1157204
-0.43333089 -0.1036319 1.1420084
-0.42008114 -0.11000557 1.1518425
-0.41538155 -0.11530355 1.1614501
-0.38202843 -0.10154353 1.1261561
-0.37744012 -0.10122773 1.1244785
-0.322552 -0.03775866 0.98414308
-0.32060507 -0.038349729 0.98489207
-0.3179267 -0.035373162 0.97828692
-0.32058889 -0.049185093 1.0067192
-0.30114853 -0.053515371 1.0110313
-0.90674782 0.057054546 0.92844397
-0.84362245 0.060221691 0.90748084
-0.94695199 0.042559192 0.96702707
-0.60969478 -0.083036929 1.1432095
-0.61218148 -0.085453331 1.1486691
-0.52201313 -0.054846104 1.0659831
-0.52470493 -0.057464164 1.0718977
-0.45214656 -0.055282071 1.0507509
-0.43768144 -0.053244874 1.0432954
-0.43707579 -0.053610519 1.0438951
-0.43670031 -0.054197967 1.0449964
-0.43594345 -0.054419592 1.04527
-0.42338222 -0.066664785 1.0671337
-0.43199605 -0.085750401 1.1077129
-0.4391821 -0.12207931 1.1828302
-0.32465139 -0.037130531 0.98464245
-0.32406586 -0.037041437 0.98432726
-0.30049092 -0.04333308 0.99161226
-0.30013633 -0.046208348 0.99734443
-0.29859343 -0.050835278 1.0063447
-0.46053556 0.0084678754 0.92523926
-0.44930601 0.012306973 0.91481686
-0.51960152 -0.053377431 1.0645884
-0.43621844 -0.052142069 1.042544
-0.42590782 -0.046814326 1.0293159
-0.43325549 -0.085295364 1.1091315
-0.43125129 -0.085376963 1.1088275
-0.43145031 -0.091862276 1.1220355
-0.43697429 -0.11832759 1.1770388
-0.36085925 -0.11438556 1.1512045
-0.32685667 -0.038050231 0.9883216
-0.32446188 -0.04047991 0.99269128
-0.31860071 -0.044229429 0.9989273
-0.31721157 -0.046687033 1.0035893
-0.31207851 -0.042410534 0.99370778
-0.30542278 -0.040742572 0.98876327
-0.29819173 -0.048569154 1.0029522
-0.29780874 -0.049160864 1.0040634
-0.90853369 0.059023969 0.93036228
-0.45774096 0.0099381804 0.92304897
-0.44978517 0.012569256 0.91579652
-0.61636162 -0.096380651 1.1773504
-0.43534285 -0.046993226 1.0336753
-0.43598849 -0.051274717 1.0425495
-0.41617164 -0.056296527 1.0480614
-0.42107031 -0.062773265 1.0624189
-0.43502903 -0.11494505 1.1720042
-0.41189581 -0.10939522 1.1551945
-0.39296246 -0.085007191 1.1010151
-0.39280146 -0.11047699 1.1528533
-0.37883162 -0.1002672 1.1287333
-0.32173118 -0.041722637 0.99590021
-0.31874019 -0.042645495 0.99706799
-0.31065053 -0.040786486 0.99135619
-0.30712074 -0.037405785 0.9836303
-0.30710745 -0.039168846 0.98721808
-0.30178773 -0.035811674 0.97911417
-0.30003968 -0.040732529 0.98872089
-0.29746491 -0.04471783 0.9962253
-0.90564609 0.060869362 0.92866099
-0.94998014 0.051370189 0.95879591
-0.94410098 0.012857733 1.0361023
-0.93620074 0.012525668 1.0348715
-0.46675587 0.006340446 0.93403965
-0.50003505 -0.040927734 1.0387101
-0.51564604 -0.05185936 1.0648302
-0.43109101 -0.035603035 1.0111599
-0.43752062 -0.12358685 1.1925715
-0.40345517 -0.097470075 1.130949
-0.41263816 -0.11930463 1.177803
-0.40029961 -0.11758693 1.1713092
-0.37878519 -0.10119317 1.1325964
-0.36004215 -0.099695086 1.1250035
-0.32439771 -0.036687683 0.98758698
-0.31968793 -0.049962934 1.0135858
-0.30669478 -0.035550665 0.9809835
-0.30640802 -0.039979797 0.98996824
-0.30476949 -0.039506655 0.98860496
-0.30242452 -0.036118221 0.98111141
-0.29576659 -0.043267664 0.99411708
-0.91242325 0.061411925 0.93197244
-0.46338004 0.0080989767 0.93112952
-0.44629166 -0.035502557 1.0163912
-0.44165295 -0.034967799 1.0141553
-0.43164641 -0.050512448 1.0435916
-0.41223508 -0.11792225 1.1771299
-0.41084379 -0.11738025 1.1756763
-0.38190937 -0.10299686 1.139064
-0.35571146 -0.098559037 1.1235284
-0.29565585 -0.03998832 0.98861879
-0.89484954 0.052466761 0.94881135
-0.95485163 0.011580788 1.0479574
-0.4604367 0.0096337274 0.92874521
-0.43094862 -0.089609295 1.1257558
-0.41428941 -0.072942033 1.0872829
-0.43133926 -0.10346213 1.1543788
-0.43359238 -0.11364345 1.1759056
-0.38764548 -0.1060183 1.1487527
-0.35635236 -0.097575873 1.1235691
-0.35527653 -0.098850295 1.1259253
-0.35276929 -0.10258262 1.1329859
-0.31647301 -0.019810734 0.95349723
-0.30655536 -0.030937953 0.97393852
-0.30109259 -0.035997566 0.98299569
-0.29526189 -0.037734877 0.98512006
-0.29348028 -0.035767715 0.98062521
-0.91144478 0.056171887 0.94816971
-0.95773995 0.011680759 1.0518347
-0.50175142 -0.039030623 1.041271
-0.42586455 -0.064355388 1.0744103
-0.42403239 -0.088056758 1.1229314
-0.41858378 -0.08247982 1.1100267
-0.43306139 -0.10921378 1.168942
-0.43246645 -0.1128426 1.1762913
-0.3962678 -0.087432429 1.1146163
-0.41118938 -0.11641948 1.1783004
-0.38512266 -0.10584337 1.1498471
-0.38257846 -0.10457858 1.1465894
-0.36798096 -0.098655924 1.1306555
-0.36674902 -0.097878993 1.128738
-0.35979998 -0.097361222 1.1259097
-0.35294488 -0.1024238 1.1346384
-0.35274085 -0.10393053 1.1377007
-0.31671569 -0.02135141 0.9579162
-0.31064329 -0.03760935 0.98998076
-0.31041175 -0.045802649 1.0068556
-0.30028197 -0.036354419 0.98476571
-0.29447085 -0.035836037 0.98222399
-0.93261886 0.060273528 0.94796848
-0.90507591 0.057777315 0.94607282
-0.87272549 0.057111964 0.93914467
-0.87665892 0.042774633 0.96989548
-0.96213722 0.012335138 1.0549901
-0.46471566 0.0090795401 0.93399477
-0.6194312 -0.088656679 1.1764674
-0.60033274 -0.093637094 1.1818937
-0.42349085 -0.062166587 1.0711962
-0.43030483 -0.1151652 1.1828834
-0.41935039 -0.11050029 1.1703935
-0.4169324 -0.1100692 1.1688782
-0.38754621 -0.10448213 1.1497418
-0.36914191 -0.096911624 1.1293114
-0.36379969 -0.09640108 1.1268803
-0.31658685 -0.019398091 0.95502454
-0.31652823 -0.021797804 0.95998722
-0.31718561 -0.026177583 0.9692412
-0.30234092 -0.036482524 0.98680478
-0.91555691 0.058593601 0.94995505
-0.89601445 0.049083952 0.96466029
-0.63460183 -0.074224636 1.1532495
-0.45888519 0.012061097 0.92780226
-0.45552114 0.013254523 0.9244408
-0.52885777 -0.053648632 1.082848
-0.44310278 -0.030441094 1.0121776
-0.42090628 -0.016356356 0.97706783
-0.43679172 -0.087992057 1.1303532
-0.44044694 -0.10147852 1.1593846
-0.42551535 -0.088464394 1.1283975
-0.41851074 -0.083516508 1.1162702
-0.43108636 -0.11391799 1.1828436
-0.42809147 -0.11286539 1.1798716
-0.40134096 -0.098159656 1.1422817
-0.40320092 -0.11207035 1.1717284
-0.35305312 -0.10351256 1.1408399
-0.85711789 0.070448935 0.91262472
-0.89148283 0.050602484 0.96318734
-0.95932186 0.023414582 1.0379454
-0.61728913 -0.08434023 1.1726484
-0.62344283 -0.09203916 1.1903645
-0.6080144 -0.095114224 1.1927094
-0.59531242 -0.090722129 1.1801716
-0.58121639 -0.083171025 1.1606636
-0.52362007 -0.049588498 1.0752519
-0.44333506 -0.030793417 1.0147401
-0.43199959 -0.024049256 0.99764878
-0.43696284 -0.082522169 1.1211514
-0.4314256 -0.091100872 1.1376135
-0.44302818 -0.1066004 1.1730717
-0.42689729 -0.1119588 1.1800023
-0.41131243 -0.10492115 1.1611736
-0.31682235 -0.021845235 0.96257764
-0.31739959 -0.024664326 0.96862137
-0.31513736 -0.028244449 0.97550434
-0.31240544 -0.033876564 0.98655111
-0.31147158 -0.034196611 0.98697281
-0.92307937 0.05120321 0.97329497
-0.44540855 0.016963912 0.91690862
-0.62372887 -0.08898443 1.1869861
-0.61696118 -0.088400349 1.1839448
-0.43926999 -0.028514344 1.0106484
-0.45202798 -0.097374402 1.1585013
-0.43635017 -0.084753335 1.1278218
-0.43157485 -0.090536743 1.1386703
-0.35656366 -0.029399062 0.99030668
-0.40615314 -0.10881859 1.1701924
-0.31244293 -0.032041293 0.98400718
-0.29953918 -0.038264927 0.99359751
-0.53975886 -0.041460298 1.0670209
-0.50895017 -0.039805155 1.0551475
-0.49652898 -0.032921445 1.0372738
-0.43018758 -0.086836398 1.1327122
-0.42917269 -0.093437433 1.1463324
-0.42753166 -0.09406969 1.1472167
-0.42731723 -0.10071065 1.1611388
-0.42472076 -0.10156165 1.1622235
-0.41998431 -0.10684231 1.1720506
-0.39498204 -0.10298619 1.1571249
-0.31470171 -0.027736021 0.97684771
-0.31495056 -0.034478407 0.99110967
-0.31363103 -0.033698838 0.98910922
-0.30204722 -0.04225358 1.0039645
-0.29854131 -0.037899014 0.99384266
-0.298049 -0.037887346 0.99368399
-0.29424515 -0.038212147 0.99333209
-0.89108074 0.063619487 0.94428617
-0.88782644 0.062188908 0.94641012
-0.42864972 -0.062228084 1.0824775
-0.43914765 -0.085198693 1.1339152
-0.41256332 -0.10302389 1.1642376
-0.35725847 -0.027511353 0.98939997
-0.36977831 -0.088354602 1.1214229
-0.33223227 -0.025431763 0.97809297
-0.31822515 -0.028453304 0.98060864
-0.31064227 -0.032131862 0.98628718
-0.30330408 -0.04500502 1.0114619
-0.29593709 -0.039171483 0.99710041
-0.88313985 0.062482186 0.94731021
-0.96747649 0.02158262 1.0576838
-0.61786026 -0.068515986 1.1508263
-0.44275671 -0.025506336 1.0105474
-0.44455582 -0.029238435 1.018967
-0.43641749 -0.067524731 1.0978897
-0.42634302 -0.09932965 1.1625233
-0.41247267 -0.096255437 1.1521171
-0.40613571 -0.10500382 1.1688964
-0.39061776 -0.097551763 1.1487435
-0.3675088 -0.089939907 1.1261249
-0.31021258 -0.02881722 0.98043531
-0.30798817 -0.03314903 0.98899955
-0.30443025 -0.047113013 1.0176194
-0.29833838 -0.038618978 0.99789745
-0.29561505 -0.039722543 0.99947506
-0.29505777 -0.039372977 0.99857748
-0.97004795 0.032761674 1.038107
-0.53724617 -0.039282672 1.068503
-0.59497529 -0.077085003 1.1653823
-0.59186029 -0.07632789 1.1628854
-0.43908155 -0.026680026 1.013781
-0.43556288 -0.088398725 1.1441721
-0.43312955 -0.096061215 1.1597931
-0.42840123 -0.10268009 1.1725403
-0.41402835 -0.08923611 1.139836
-0.40097415 -0.079400122 1.1151872
-0.39897877 -0.10415293 1.1673156
-0.38537925 -0.094367757 1.1426202
-0.31810987 -0.02879609 0.98391283
-0.30902299 -0.027888296 0.97939831
-0.30870697 -0.031791251 0.98761737
-0.30420303 -0.028283266 0.97886962
-0.30173847 -0.029956369 0.98173118
-0.88123381 0.066369854 0.94413447
-0.85982108 0.065227546 0.94040549
-0.42906645 -0.061684966 1.0874804
-0.42808777 -0.082656652 1.1320118
-0.44530326 -0.10592266 1.1866881
-0.4284268 -0.09908314 1.1672102
-0.41025811 -0.087519616 1.1372657
-0.41316429 -0.11755612 1.2022864
-0.40788126 -0.11101857 1.1867944
-0.3860274 -0.091658056 1.139127
-0.36839101 -0.083868995 1.1174012
-0.31849813 -0.029444959 0.9867292
-0.31740159 -0.029372495 0.98625839
-0.30283913 -0.046483736 1.0186265
-0.29960549 -0.043793242 1.0119455
-0.29577339 -0.039953392 1.0026361
-0.91919363 0.069923677 0.95043063
-0.93970847 0.028082704 1.0461682
-0.92850208 0.028039878 1.0429859
-0.44025749 -0.022510085 1.0087615
-0.43275553 -0.065962911 1.0997707
-0.44469944 -0.088345625 1.1512686
-0.44561785 -0.095869161 1.1676741
-0.39732909 -0.095410734 1.1525824
-0.3864553 -0.088630259 1.1348622
-0.31461415 -0.030093815 0.9883191
-0.31037194 -0.026691092 0.97978121
-0.30904886 -0.025696484 0.9772613
-0.30584955 -0.029968288 0.98548913
-0.88582289 0.069234557 0.94499993
-0.87061846 0.069169886 0.94063544
-0.86740398 0.067782447 0.94267035
-0.52789026 -0.040647041 1.0755459
-0.42895657 -0.018408764 0.99836224
-0.42660007 -0.080682471 1.131737
-0.42706943 -0.093043596 1.1584891
-0.42759067 -0.095079929 1.1630276
-0.41325843 -0.087412089 1.1422737
-0.41265079 -0.087966442 1.1432872
-0.40905035 -0.087195724 1.1405615
-0.38859397 -0.08398059 1.1275798
-0.38627562 -0.087669164 1.1348345
-0.31606224 -0.029321667 0.98841637
-0.30628237 -0.029396605 0.98568076
-0.30640218 -0.031561326 0.99037677
-0.302766 -0.031078737 0.98826075
-0.89859617 0.062671609 0.96587765
-0.53950411 -0.042226054 1.0847398
-0.53915483 -0.042873465 1.0860341
-0.44695491 -0.028698595 1.0277141
-0.42761654 -0.057063699 1.0832067
-0.44532156 -0.080080532 1.1382649
-0.41591275 -0.067315608 1.1018475
-0.42715037 -0.0937583 1.1623672
-0.38231081 -0.086499169 1.1332147
-0.36113855 -0.077648982 1.1077307
-0.36514854 -0.090648696 1.1370286
-0.3290095 -0.036060702 1.0082066
-0.31882527 -0.024986027 0.98121506
-0.30357647 -0.028255923 0.98370254
-0.526447 -0.039043512 1.0762304
-0.5214988 -0.037024837 1.0703453
-0.5128656 -0.034442481 1.0621154
-0.44325432 -0.020643551 1.0109928
-0.44180751 -0.024903821 1.0197941
-0.43012559 -0.017405707 0.99997288
-0.41841871 -0.047904715 1.0625701
-0.45568135 -0.094098039 1.1741186
-0.45349169 -0.093032949 1.1711415
-0.44383118 -0.088857524 1.1591433
-0.42892623 -0.083231494 1.1424021
-0.42776194 -0.095152974 1.1679087
-0.41893968 -0.093527287 1.1616967
-0.38383085 -0.086860165 1.1365471
-0.3390519 -0.021138024 0.98034734
-0.35904679 -0.097080275 1.1511734
-0.35737285 -0.097156808 1.1508298
-0.32280642 -0.027753305 0.98975271
-0.30651841 -0.027812105 0.98492241
-0.60753495 -0.079077758 1.1907262
-0.517106 -0.035330918 1.0675679
-0.44566876 -0.021794396 1.0160526
-0.44090822 -0.024364742 1.0201808
-0.44337517 -0.09014345 1.1641759
-0.44388288 -0.092027374 1.1684347
-0.42875904 -0.091501191 1.1626229
-0.42869523 -0.092788607 1.1654066
