ply
format ascii 1.0
comment PCL generated
element vertex 1397
property float x
property float y
property float z
element camera 0
property float view_px
property float view_py
property float view_pz
property float x_axisx
property float x_axisy
property float x_axisz
property float y_axisx
property float y_axisy
property float y_axisz
property float z_axisx
property float z_axisy
property float z_axisz
property float focal
property float scalex
property float scaley
property float centerx
property float centery
property int viewportx
property int viewporty
property float k1
property float k2
end_header
-1.00266 0.17687038 0.66281283
-1.1284652 0.17168561 0.67368996
-0.8172738 0.045751583 0.79639816
-0.81597531 0.042090174 0.80029142
-1.0080221 -0.049011625 0.90659022
-0.94477415 -0.048330206 0.90319765
-1.0877872 -0.10797872 0.97352207
-1.1029065 -0.11972074 0.98681808
-0.96895802 -0.17596626 1.0418345
-0.96427554 -0.19087403 1.0577117
-0.90972233 -0.17768699 1.0412006
-0.89978015 -0.18649834 1.0502834
-0.84289169 -0.17149436 1.0317152
-0.74246252 -0.1480387 1.0022044
-0.74701184 -0.15261315 1.0073278
-0.7541607 -0.15728414 1.0126647
-0.78121191 -0.17169076 1.029335
-0.8133868 -0.19006704 1.050501
-0.82787132 -0.19856809 1.0602756
-0.77130371 -0.17189544 1.0291394
-0.76506877 -0.17130882 1.0282449
-0.78848618 -0.19353305 1.0531917
-0.78356892 -0.19230472 1.0516605
-0.7257573 -0.17431433 1.0298334
-0.72921163 -0.1823201 1.0386106
-0.77771115 -0.237794 1.1004622
-0.60970819 -0.15877844 1.0082055
-0.6576761 -0.19220853 1.0462663
-0.66634291 -0.19906023 1.0540183
-0.51761341 -0.11690204 0.9591831
-0.53692997 -0.13500835 0.97951758
-0.53802687 -0.15085511 0.9966501
-0.59867823 -0.20099223 1.0532579
-0.52073944 -0.15361942 0.99890423
-0.47985238 -0.12858249 0.97019053
-0.43745744 -0.15870734 1.0008904
-0.43920106 -0.16233267 1.0048726
-0.97869879 0.20697385 0.63138783
-1.106312 0.20771615 0.6362896
-1.0233968 0.1965261 0.64466608
-1.1029325 0.1808127 0.66518664
-0.94431126 -0.17574438 1.0430777
-0.84139365 -0.18746495 1.0511328
-0.73822397 -0.14392637 0.99951267
-0.7656585 -0.16939485 1.0282375
-0.75898558 -0.1710583 1.0297353
-0.78561592 -0.18974264 1.0510993
-0.7785213 -0.19789456 1.059584
-0.7506578 -0.19449537 1.0546685
-0.81326985 -0.26993877 1.1389242
-0.51913989 -0.11391957 0.95732248
-0.51304507 -0.11227891 0.95527864
-0.53493434 -0.1375909 0.98358679
-0.53638649 -0.14050721 0.98680031
-0.54464543 -0.15813534 1.0062028
-0.44304651 -0.16149934 1.0052943
-0.99385279 0.17657033 0.66702271
-0.91977668 -0.024713699 0.88114345
-0.91939229 -0.046518438 0.90470064
-1.0966818 -0.11686215 0.98915458
-1.0364249 -0.1340057 1.004836
-1.0108054 -0.190778 1.0650051
-0.8184728 -0.16254407 1.025368
-0.79587299 -0.19266684 1.0568664
-0.78390259 -0.1891873 1.0525373
-0.77989328 -0.18974055 1.0529455
-0.75027728 -0.184434 1.0458052
-0.76841044 -0.20996825 1.0742719
-0.76377153 -0.20868622 1.0726662
-0.740201 -0.19921973 1.0613143
-0.65925491 -0.19044518 1.0479929
-0.70381451 -0.23480242 1.098063
-0.49705017 -0.099798396 0.94230187
-0.52127481 -0.11828721 0.96343958
-0.5205183 -0.12126699 0.96662545
-0.5439384 -0.14347096 0.9917419
-0.32905388 -0.021809345 0.85002196
-0.32890207 -0.022143027 0.85037565
-0.99232352 0.21050917 0.63233519
-1.089895 0.2076696 0.64029288
-1.0978155 0.20619537 0.64228547
-1.080076 0.18193629 0.66766298
-1.0712643 0.16934094 0.68085897
-0.86016667 0.050463654 0.79900229
-0.84017187 0.021656193 0.82919145
-0.81386954 0.010827197 0.83959961
-0.78885019 0.013378767 0.83558488
-1.0855784 -0.11412299 0.98848212
-1.0793557 -0.1140352 0.98807561
-0.96562618 -0.17400563 1.0473136
-0.93585801 -0.16713315 1.0383829
-0.94415867 -0.17179012 1.0438404
-0.9366591 -0.20172189 1.0758722
-0.79230988 -0.14615574 1.0084863
-0.81695294 -0.16345149 1.0284457
-0.81925792 -0.16579667 1.0311002
-0.77242863 -0.16829583 1.0314623
-0.75716943 -0.16329843 1.0252879
-0.75777423 -0.16483381 1.0269805
-0.78646046 -0.18950911 1.0551322
-0.77782547 -0.21291618 1.0800428
-0.75732589 -0.2054054 1.0708849
-0.7423358 -0.20079064 1.0651382
-0.79253292 -0.23934285 1.1093911
-0.78151429 -0.23566453 1.1048571
-0.71676564 -0.20615846 1.0696703
-0.4829672 -0.13384934 0.97967994
-0.53053302 -0.17436929 1.0259316
-0.96904093 0.22103025 0.62178457
-0.99158043 0.21246722 0.63225722
-1.0963147 0.20730357 0.64337873
-1.0111144 0.19393635 0.65337849
-1.170162 0.18271622 0.67393076
-0.86811107 0.051608004 0.80014944
-0.9218272 -0.021702575 0.88246524
-0.94446784 -0.036107898 0.89927757
-1.0452299 -0.13398442 1.0107088
-1.0443699 -0.14145404 1.0187619
-1.0719247 -0.15310112 1.0328426
-0.96218115 -0.17147094 1.0469719
-0.93856895 -0.16697285 1.0408499
-0.94871932 -0.17829388 1.0536594
-0.98110211 -0.21464624 1.0947803
-0.98780721 -0.21907975 1.0999405
-0.68796158 -0.099645205 0.95463765
-0.81443501 -0.16000107 1.026745
-0.79192245 -0.17423227 1.0409873
-0.76169354 -0.16832209 1.0329852
-0.81969011 -0.20133205 1.0718331
-0.78157544 -0.2005461 1.0689709
-0.79790473 -0.24146862 1.1142001
-0.78153723 -0.23327737 1.1044561
-0.78081203 -0.23564507 1.106985
-0.68801433 -0.19750792 1.0607431
-0.68385667 -0.19612044 1.0590194
-0.61337614 -0.16567762 1.0222968
-0.68503171 -0.2216424 1.0867524
-0.56251091 -0.1437258 0.9958142
-0.5434109 -0.14088555 0.99172759
-0.52956128 -0.13280492 0.98223627
-0.52552533 -0.13444434 0.98380089
-0.54265124 -0.15863828 1.0109351
-0.53176111 -0.15126835 1.0023704
-0.54196209 -0.18429081 1.0387112
-0.97517949 0.2090425 0.63714981
-0.99674749 0.2083887 0.63905513
-1.1769753 0.18690306 0.67237139
-1.0923929 0.17735201 0.6780529
-1.0350161 0.16784418 0.68519533
-0.81638938 0.011264352 0.84307623
-0.82885921 0.0017776764 0.85406709
-0.94920677 -0.037203774 0.90305948
-1.0716186 -0.13887519 1.0202287
-0.93942451 -0.16463503 1.0408692
-0.94740695 -0.17507225 1.0526433
-0.947442 -0.1780715 1.0559015
-0.91052413 -0.17653862 1.0521911
-0.90695071 -0.17651865 1.0519714
-0.91216487 -0.18157294 1.0577478
-0.81278914 -0.15566424 1.0241108
-0.85647017 -0.19013874 1.0639607
-0.77440929 -0.15977645 1.0264481
-0.77644974 -0.18632287 1.0553827
-0.8434028 -0.23839177 1.1156247
-0.80844438 -0.22792332 1.1023216
-0.79049969 -0.240366 1.1148359
-0.67564809 -0.19492278 1.0591325
-0.55200016 -0.13396691 0.98609936
-0.55010223 -0.13455437 0.98663199
-0.5127939 -0.12189536 0.97082031
-0.52359354 -0.13333987 0.98384428
-0.55309832 -0.16295485 1.0176325
-0.55354512 -0.164297 1.0191145
-0.53335315 -0.15572311 1.0086865
-0.49291086 -0.12866361 0.97706652
-0.47059733 -0.1159337 0.96200895
-0.44772923 -0.10131615 0.94487119
-0.45329636 -0.10743916 0.95182753
-0.33003819 -0.020458391 0.8505609
-1.0182683 0.22139028 0.62827849
-0.97233671 0.21258397 0.63518298
-0.95803893 0.20924067 0.63798678
-1.0286008 0.20570199 0.6459353
-1.0702934 0.20744114 0.64646792
-1.1462495 0.18519866 0.6750648
-1.0164462 0.17121722 0.6827209
-0.83683968 0.010687462 0.84680974
-0.80082232 0.01000878 0.8454541
-0.9882133 -0.040219579 0.91095436
-1.1086154 -0.11274415 0.9968015
-1.0794405 -0.13660231 1.0210443
-1.0757354 -0.14029595 1.0248445
-1.0281678 -0.13234562 1.0134362
-1.0164393 -0.13030902 1.0105402
-0.97839499 -0.17046779 1.0519897
-0.883946 -0.14525563 1.0190893
-0.79968357 -0.15653944 1.0264595
-0.84751379 -0.24399288 1.1243191
-0.84227508 -0.24261589 1.1225176
-0.78703696 -0.23589416 1.111999
-0.75448525 -0.22349973 1.0966319
-0.65986913 -0.17829542 1.0419862
-0.58234215 -0.13989596 0.99573207
-0.53558058 -0.12397783 0.97570789
-0.5460934 -0.13397689 0.98719001
-0.51639879 -0.1212737 0.9716531
-0.51430154 -0.12505077 0.97563767
-0.55131352 -0.15996306 1.0157456
-0.49775344 -0.13104509 0.98119283
-0.35795945 -0.040201087 0.87430167
-0.34421182 -0.03057172 0.86303365
-0.33357573 -0.022928974 0.85410619
-0.33245569 -0.0228708 0.85397792
-0.33261549 -0.023985125 0.85519862
-0.96575058 0.21293439 0.63644075
-1.0015019 0.2091489 0.64273655
-1.0476818 0.20349607 0.6516999
-1.1456871 0.19705436 0.6646744
-1.0426347 0.18646805 0.66993141
-1.0819111 0.17813602 0.68139148
-1.0201682 -0.044098664 0.91958487
-0.95845115 -0.039350931 0.91066182
-1.0931234 -0.10896619 0.99464428
-1.0583822 -0.14482304 1.0315688
-0.98165816 -0.16887492 1.0530874
-0.83409643 -0.16024494 1.0347162
-0.82860011 -0.16051069 1.0346712
-0.82103097 -0.16114274 1.034899
-0.81986958 -0.1685372 1.0428786
-0.80538106 -0.18969737 1.0650347
-0.76145685 -0.18177941 1.0537426
-0.74971634 -0.20382586 1.0770307
-0.53301287 -0.12703843 0.98025036
-0.51898599 -0.12076561 0.9725678
-0.52315271 -0.13364185 0.98683977
-0.53388894 -0.14437146 0.99917424
-0.51450431 -0.13718249 0.99016845
-0.33690685 -0.024198212 0.856359
-0.34102607 -0.02992592 0.8628453
-0.9780218 0.21718891 0.63460755
-1.0146091 0.21645181 0.63773584
-1.0072541 0.2079218 0.64656806
-1.0064681 0.20687203 0.64766264
-1.0942403 0.20446409 0.65586436
-0.94328368 -0.038777132 0.91145933
-1.0773938 -0.095933974 0.98229349
-1.0936701 -0.1030297 0.99106348
-1.1069446 -0.10790691 0.99722409
-1.0545576 -0.13291323 1.021158
-0.85026455 -0.13682002 1.0124376
-0.82895905 -0.16359547 1.0402751
-0.75935799 -0.16212279 1.0342476
-0.83848733 -0.23393582 1.1175667
-0.83180177 -0.23324858 1.1163927
-0.83481389 -0.23635362 1.1199694
-0.74264628 -0.19371864 1.067632
-0.74651438 -0.19717079 1.0716414
-0.76478344 -0.21277212 1.089811
-0.7700929 -0.21851374 1.0964079
-0.77155912 -0.22758408 1.1063898
-0.55570114 -0.12141559 0.97692847
-0.56043863 -0.12727533 0.98361802
-0.55105108 -0.12302208 0.97838449
-0.55312383 -0.12530695 0.98100722
-0.55214953 -0.12652598 0.98227441
-0.54242563 -0.12833534 0.98362923
-0.51902092 -0.12285455 0.97616696
-0.51069945 -0.11952177 0.97200477
-0.5147624 -0.13046034 0.98418832
-0.50956714 -0.12925409 0.98254311
-0.50937718 -0.1300015 0.98334599
-0.48711389 -0.12502457 0.97650552
-0.46710497 -0.11483838 0.96412909
-0.99884248 0.22345857 0.63119876
-0.98520982 0.21627937 0.63813341
-1.0147927 0.20978327 0.64718521
-1.1468464 0.19038388 0.67711246
-1.1798263 0.18641822 0.68362677
-1.0657637 0.17637703 0.68703258
-0.8619498 0.047130212 0.81463301
-1.010226 -0.045014191 0.92505312
-0.97237271 -0.16299579 1.0513494
-0.94057542 -0.16171649 1.0478463
-0.86757189 -0.14108214 1.0204828
-0.83866215 -0.16950047 1.0495927
-0.76923323 -0.16725329 1.0425398
-0.79411119 -0.18871687 1.0676204
-0.70769542 -0.1709073 1.0424522
-0.66600776 -0.17269023 1.0416372
-0.66377664 -0.1724938 1.0412748
-0.7201004 -0.21950313 1.0963277
-0.55825216 -0.11962181 0.97656202
-0.54555261 -0.12153374 0.97780812
-0.52687454 -0.12334482 0.97854781
-0.52283692 -0.12229976 0.97713947
-0.51115656 -0.1192736 0.97306192
-0.51691532 -0.12697949 0.98185623
-0.51628292 -0.12741138 0.98228574
-0.49845248 -0.12990727 0.98382938
-0.9515729 0.22251257 0.63108099
-0.96660161 0.22345661 0.6310854
-1.0005331 0.22475797 0.63200283
-0.98061204 0.22055726 0.63522136
-1.0066799 0.20815577 0.65057707
-0.98734844 0.20436329 0.65338993
-1.1019489 0.19543557 0.67105389
-1.181685 0.19403173 0.67808783
-1.2085655 0.19457026 0.67935288
-1.0791481 0.17502069 0.69179976
-0.8665852 0.051697418 0.81196272
-0.84490854 0.0490667 0.81334376
-0.98817861 -0.041940603 0.92271805
-1.0839185 -0.096310332 0.98876059
-1.0928447 -0.10159263 0.99515104
-1.0803547 -0.10312316 0.99596286
-1.0323443 -0.11771919 1.0086088
-1.0359596 -0.12939021 1.0216174
-0.97736615 -0.16353679 1.0549071
-0.91616589 -0.15997189 1.0467889
-0.83372176 -0.16625664 1.0479736
-0.77235329 -0.16654134 1.0440526
-0.76354277 -0.17869601 1.0567329
-0.83161175 -0.22084011 1.1075013
-0.76400995 -0.23910151 1.1228032
-0.5387634 -0.11285889 0.96925437
-0.53937382 -0.11414799 0.97070575
-0.53993642 -0.11541049 0.97212481
-0.540084 -0.11640555 0.97322273
-0.54608154 -0.12863789 0.98700941
-0.54447484 -0.12847643 0.98672211
-0.51380134 -0.12768064 0.98373663
-0.50599438 -0.12806924 0.98362303
-1.0377723 0.21838699 0.64376223
-1.0004114 0.20865597 0.65173697
-1.0874288 0.19450326 0.67346931
-1.1005963 0.17857268 0.69185364
-0.86512667 0.052859038 0.8125993
-0.82653928 0.052124843 0.81063664
-0.79757541 0.051692475 0.80903339
-1.059659 -0.13032413 1.0270883
-0.91553545 -0.17444879 1.0650619
-0.84810126 -0.16469273 1.0495467
-0.83168113 -0.1629656 1.0464789
-0.79401767 -0.18531784 1.0682491
-0.79447991 -0.19492681 1.0788019
-0.82495427 -0.21628092 1.1043643
-0.77472425 -0.21273677 1.0968832
-0.77950877 -0.22785066 1.1137724
-0.5460974 -0.12708645 0.98672545
-0.51306963 -0.12566613 0.98280275
-0.50692439 -0.12731059 0.98416245
-0.50030339 -0.12669332 0.98301196
-0.49486548 -0.15666996 1.0154395
-0.97155374 0.21980938 0.63950539
-0.99268168 0.21944447 0.64147794
-0.98534381 0.20730868 0.6542362
-1.0162493 0.19944115 0.66516125
-1.0737357 0.1947114 0.67462468
-0.82768726 0.055848852 0.80854642
-0.80499876 0.05173092 0.81137228
-1.071193 -0.095036581 0.99208272
-0.97147971 -0.16042373 1.0563449
-0.98353034 -0.17086852 1.0686921
-0.77157664 -0.15918007 1.040104
-0.77956736 -0.16680077 1.0490532
-0.76112616 -0.15917516 1.0393209
-0.77612525 -0.18188801 1.0653371
-0.79393548 -0.20039822 1.0869551
-0.76859438 -0.20563306 1.0908079
-0.76368511 -0.20958443 1.0947744
-0.78057331 -0.22190227 1.1095352
-0.77132499 -0.24727245 1.1366599
-0.81096232 -0.27798495 1.1732795
-0.81625599 -0.28596079 1.1824173
-0.51071739 -0.11896771 0.97660589
-0.51029092 -0.12040964 0.9781549
-0.50833565 -0.12249155 0.98029172
-0.50767952 -0.12288681 0.98067629
-0.50189167 -0.12558158 0.98319972
-0.44988692 -0.098940209 0.95012283
-0.47967225 -0.1393524 0.99664283
-0.50029135 -0.16081779 1.0217097
-0.48584259 -0.15191568 1.0108751
-0.97043723 0.22074489 0.64044416
-1.0098481 0.20595486 0.65972185
-1.0106635 0.19810222 0.66840541
-1.0590227 0.19586834 0.67458916
-1.1618534 0.20032328 0.67763281
-1.2290366 0.20149937 0.68152547
-0.83772272 0.0567168 0.81027627
-0.91522127 -0.15039852 1.0436298
-0.89337426 -0.14920139 1.0406299
-0.98338729 -0.20084272 1.1042676
-0.82271153 -0.1582776 1.0451416
-0.76988155 -0.16369718 1.047015
-0.78092301 -0.17290616 1.0579766
-0.75160712 -0.16847625 1.0508516
-0.79103142 -0.19247453 1.0802389
-0.80673909 -0.21583621 1.1070977
-0.78021914 -0.22346641 1.113428
-0.77002406 -0.24546431 1.136791
-0.7753306 -0.25018525 1.1423831
-0.82269418 -0.2858519 1.1851928
-0.82103419 -0.28792018 1.1873355
-0.52278924 -0.11987871 0.97984517
-0.50419271 -0.12587221 0.98499
-0.49531811 -0.12523045 0.98360074
-0.44262815 -0.09563148 0.94704115
-0.48359972 -0.14576738 1.0052422
-0.97373718 0.23130637 0.63114882
-0.98561472 0.21988675 0.64465189
-0.80305809 0.058470469 0.80751705
-0.98482966 -0.037698675 0.92776346
-0.9843235 -0.18726662 1.0921491
-0.7944864 -0.13869759 1.0235872
-0.82104427 -0.15519726 1.0438478
-0.77944493 -0.1711953 1.0581114
-0.78063494 -0.17307013 1.0602676
-0.77479368 -0.17149037 1.0580641
-0.81143391 -0.21448357 1.108256
-0.80500311 -0.21246399 1.1055219
-0.50423861 -0.11402577 0.9732734
-0.48877746 -0.12219481 0.98101866
-0.48375434 -0.14355214 1.0040963
-0.47900373 -0.14213212 1.0021557
-1.0257311 0.22168697 0.64808452
-0.9876495 0.21082704 0.65689266
-0.98127437 0.20922552 0.65812874
-1.4879661 0.15810117 0.75628722
-0.91064042 -0.1520243 1.049981
-0.83561152 -0.15642184 1.0486212
-0.77896124 -0.15846947 1.0461932
-0.82191068 -0.21898262 1.1163603
-0.81631261 -0.21886288 1.1157658
-0.79454249 -0.25415495 1.1528186
-0.49592274 -0.12370573 0.98453033
-0.44077086 -0.093182258 0.94636965
-0.47455686 -0.13164009 0.99149919
-0.47839868 -0.13752733 0.99829781
-0.47867858 -0.13864969 0.99955654
-0.31807619 -0.0042935493 0.83837414
-0.31859165 -0.0073658861 0.8417989
-0.95249933 0.22086962 0.64494252
-0.96429974 0.22047757 0.64638233
-1.0184481 0.21612646 0.65580344
-1.0428352 0.21157357 0.66290522
-1.012326 0.19965905 0.67343438
-1.0399967 0.19687988 0.67886126
-0.85613 0.059780292 0.81429851
-0.87306124 0.045729864 0.83123374
-0.90724444 -0.14536157 1.0448136
-0.93236309 -0.16337836 1.0668205
-0.79579461 -0.15370989 1.0444989
-0.8251065 -0.20959742 1.1086129
-0.80107582 -0.22090577 1.1190271
-0.7738995 -0.21960209 1.1152691
-0.77602702 -0.22359155 1.1198487
-0.86519688 -0.30588859 1.2181888
-0.85315561 -0.30002871 1.2107005
-0.44214785 -0.093075298 0.94745302
-0.97563589 0.22839661 0.64068747
-1.0292232 0.2233855 0.65094376
-1.0575331 0.21627769 0.66128623
-1.0256317 0.20602055 0.66979706
-1.2100978 0.20830883 0.68353355
-1.2328875 0.20498648 0.6892103
-0.97280246 -0.15160805 1.059942
-0.96792936 -0.15740412 1.0659108
-0.80204827 -0.15938187 1.0534701
-0.77445078 -0.16837811 1.0609685
-0.75639999 -0.20195271 1.0964417
-0.43701857 -0.090692915 0.94546044
-0.3180989 -0.001218739 0.83620191
-0.318546 -0.0028900979 0.83808637
-0.32025576 -0.0078882016 0.84375477
-0.96913213 0.22500728 0.64591432
-0.95352024 0.22129609 0.64859748
-0.98292518 0.22206007 0.65042651
-1.0612421 0.22613244 0.65304542
-1.0413389 0.2137758 0.66489589
-0.94779277 -0.15195549 1.060701
-0.84304345 -0.16311613 1.0635148
-0.79539895 -0.15536851 1.0506177
-0.81240851 -0.19959749 1.101059
-0.75954795 -0.18564606 1.0808295
-0.78222108 -0.20578124 1.1051502
-0.31749976 -0.0012952862 0.83683932
-0.98320013 0.23059852 0.64310539
-1.2266583 0.20867656 0.69018447
-0.90722281 -0.14186808 1.0483186
-0.90555298 -0.14266106 1.04904
-0.98491877 -0.18420014 1.1024611
-0.89104819 -0.14982212 1.0556085
-0.79378194 -0.14852494 1.0450591
-0.79506743 -0.15549725 1.052898
-0.79054981 -0.15987876 1.0573254
-0.73991126 -0.15453883 1.0466692
-0.73898411 -0.1552989 1.0474238
-0.32435912 -0.009644527 0.84733188
-0.96219563 0.23344201 0.6400243
-0.97424763 0.22961396 0.64543068
-0.97183251 0.22014216 0.65569794
-0.99288535 0.22165211 0.65605497
-1.072006 0.22662815 0.65817142
-1.0051771 0.20947151 0.67074394
-1.0661805 0.2027923 0.68403339
-0.98763114 -0.15289652 1.0707643
-0.90493572 -0.14127505 1.0499034
-0.77560306 -0.10230315 0.99422312
-0.7960785 -0.11854016 1.0141985
-0.76152146 -0.10617944 0.99716187
-0.7982282 -0.14691475 1.0458612
-0.80155432 -0.15222207 1.0520657
-0.80876285 -0.15670776 1.0577339
-0.75609756 -0.15532923 1.0511249
-0.86402845 -0.2955856 1.2170222
-0.32531786 -0.010214049 0.84869599
-0.32749921 -0.013980662 0.85308206
-1.0347215 0.24340519 0.63820124
-0.94364524 0.21432202 0.66144776
-1.0208079 0.21416818 0.66927719
-1.0073214 0.20983258 0.67275167
-1.1058536 0.21078423 0.68147469
-1.1530757 0.20917241 0.68795097
-0.99052185 -0.15259576 1.073426
-0.90504628 -0.14295834 1.0542437
-0.84185749 -0.13406721 1.0381018
-0.82570237 -0.15250137 1.0569627
-0.72263414 -0.12561963 1.0168908
-0.74773324 -0.14549915 1.0414506
-0.82473528 -0.20689137 1.1172466
-0.64303255 -0.12270368 1.005753
-0.77584153 -0.21293773 1.1191061
-0.86037523 -0.29058191 1.213691
-0.31919569 -0.0024048416 0.84006429
-0.91713947 0.23603781 0.63662326
-1.0310645 0.21739438 0.66897368
-1.1089842 0.21010725 0.68502557
-1.1749499 0.2111762 0.69056845
-0.85175532 -0.13152611 1.0385656
-0.79454535 -0.13323066 1.0346229
-0.82451463 -0.16425827 1.0721738
-0.75330806 -0.14595085 1.0445558
-0.73403597 -0.14888225 1.0458481
-0.75826776 -0.16574609 1.067068
-0.84006685 -0.21359463 1.1286072
-0.7138114 -0.15428971 1.0497957
-0.68223852 -0.1413698 1.0322112
-0.68685007 -0.14605783 1.0378935
-0.77562332 -0.21456267 1.1231074
-0.77819657 -0.21739693 1.1265208
-0.81904364 -0.27685338 1.1967856
-0.32752723 -0.012058903 0.85226405
-0.9217338 0.24021113 0.63437653
-0.90909213 0.23666111 0.6370033
-1.054657 0.22417109 0.6661675
-1.0420732 0.22075151 0.66865528
-1.0289776 0.21833457 0.66997302
-1.0844815 0.21025832 0.68478239
-1.1748192 0.21012507 0.69440126
-1.1701965 0.20853885 0.69568253
-1.2117636 0.2069227 0.70183921
-0.80740267 -0.13500616 1.0400974
-0.80970353 -0.13722563 1.0428094
-0.81768769 -0.16284341 1.0721651
-0.80841064 -0.16001755 1.0680468
-0.76412678 -0.14138186 1.0426583
-0.75868756 -0.14873886 1.0502782
-0.72217113 -0.14455177 1.0417888
-0.7140165 -0.14994244 1.0469351
-0.7075361 -0.15964173 1.0570532
-0.78463697 -0.2144296 1.126128
-0.32844079 -0.013044987 0.85411441
-0.92158091 0.24201609 0.63427567
-0.90710175 0.2373433 0.63792658
-0.94028932 0.22675791 0.65329921
-0.97986531 0.22263493 0.66215515
-0.98985338 0.22192734 0.66401899
-1.010872 0.21063365 0.67887139
-1.0554671 0.20985793 0.6845361
-1.0576035 0.20794952 0.68689358
-0.98237795 -0.14297643 1.0700089
-0.91950065 -0.13899338 1.0588009
-0.93842274 -0.15153772 1.0748219
-0.93740654 -0.15263593 1.0759369
-0.76389003 -0.10216592 1.0009971
-0.67468888 -0.074775115 0.96086085
-0.74936783 -0.14831968 1.0508862
-0.74551582 -0.14771084 1.0497928
-0.76404685 -0.17179435 1.0786357
-0.6263386 -0.11266533 0.99789679
-0.77101099 -0.20316423 1.1143564
-0.77961528 -0.21617009 1.1297814
-0.85993093 -0.2884672 1.2190228
-0.86715513 -0.29445392 1.226474
-0.3227458 -0.0050981818 0.84530473
-0.32627922 -0.0094974674 0.85058928
-0.91580218 0.23964155 0.63821709
-0.95425659 0.22962563 0.65364528
-1.1980383 0.20991768 0.70256913
-1.208446 0.20950849 0.70417523
-1.2182386 0.20902412 0.70579755
-1.2259688 0.18634942 0.73196435
-1.2017949 0.18369885 0.73225367
-1.4859407 0.16458823 0.7849685
-0.93526399 -0.15504205 1.0809765
-0.82118756 -0.13856858 1.0499879
-0.76861537 -0.12678802 1.0310305
-0.7662338 -0.12819487 1.0323381
-0.77163684 -0.13172269 1.0368731
-0.79962283 -0.21497221 1.1329006
-0.77019536 -0.2098787 1.1239644
-0.8401379 -0.2707223 1.1996121
-0.32217592 -0.0025840877 0.84307039
-0.89593464 0.24080358 0.63658822
-0.91102886 0.23080108 0.64947975
-0.95786166 0.23115556 0.65438712
-1.0186571 0.22462063 0.66857779
-1.0311821 0.20991607 0.68643475
-1.1875527 0.21657093 0.69670379
-1.2230735 0.18502551 0.73599207
-0.93654293 -0.14988974 1.0779548
-0.81855613 -0.14163917 1.0553694
-0.78496224 -0.13146761 1.0401938
-0.76063097 -0.1272485 1.0327218
-0.76446325 -0.1349692 1.0417869
-0.76526231 -0.14146003 1.0491337
-0.76183724 -0.14731923 1.0552959
-0.7552585 -0.1504381 1.0580376
-0.7736581 -0.20943849 1.1260797
-0.85734481 -0.28784543 1.2232106
-0.85505325 -0.28808561 1.2232196
-0.33313626 -0.016303396 0.86027992
-0.88725525 0.2419679 0.6361438
-0.88647634 0.22830494 0.65134907
-0.92271614 0.23175642 0.65169132
-0.94360292 0.23380275 0.65182459
-0.95332998 0.23249297 0.65441978
-1.029794 0.21095221 0.68740952
-1.1097159 0.21433313 0.69290066
-1.2145274 0.21913399 0.69969118
-1.1928742 0.21106629 0.70620978
-1.2134044 0.20897874 0.71092963
-1.0261612 -0.12073901 1.0583162
-0.98189622 -0.14049104 1.0752909
-0.96777332 -0.13881567 1.0717763
-0.97726148 -0.14800555 1.0831655
-0.78145212 -0.10718726 1.014743
-0.79498595 -0.13340339 1.0456626
-0.7787931 -0.13903263 1.0500853
-0.75807148 -0.13362467 1.041626
-0.75919241 -0.15383121 1.0643773
-0.75643617 -0.15376642 1.0639849
-0.75383502 -0.15376651 1.0636832
-0.76637411 -0.16232744 1.0747223
-0.7227816 -0.15075596 1.0567085
-0.68114412 -0.1388308 1.0385256
-0.81912619 -0.22338785 1.1492021
-0.81966031 -0.2625137 1.1930654
-0.84676629 -0.28033254 1.2161596
-0.33519584 -0.018293848 0.86343217
-0.33308041 -0.017404726 0.8621912
-0.91816473 0.23212181 0.65270066
-0.9379105 0.22969532 0.65776837
-0.93464667 0.22838776 0.65884626
-0.92623615 0.22554488 0.66103339
-0.973248 0.22617872 0.66591203
-1.0170459 0.21385683 0.68493271
-0.96487391 -0.1515286 1.0883539
-0.93378448 -0.14646927 1.0789859
-0.85413289 -0.14867309 1.071987
-0.84230077 -0.14659575 1.0682515
-0.80804199 -0.15205511 1.0702989
-0.78951144 -0.15679789 1.0734128
-0.76286107 -0.15586358 1.0691971
-0.68029398 -0.13418229 1.0350745
-0.76132917 -0.19525729 1.1131783
-0.68694222 -0.15597411 1.0602951
-0.84276295 -0.27679375 1.214268
-0.3329832 -0.014637563 0.85976529
-0.94370586 0.25055081 0.63707089
-0.95570093 0.25160664 0.63734555
-0.93021053 0.23226605 0.65595555
-0.97454327 0.22649924 0.6678257
-1.0143001 0.21967994 0.68032038
-1.0056967 0.21579097 0.68363929
-1.1344728 0.21927904 0.6953975
-1.1775458 0.20769201 0.71364832
-0.96385401 -0.13500768 1.0723704
-0.93114644 -0.14577013 1.0804718
-0.85964984 -0.14841151 1.0747349
-0.85150617 -0.15059623 1.0761963
-0.76917696 -0.12074342 1.0326614
-0.77264416 -0.12581706 1.0387793
-0.76640832 -0.12441427 1.0364454
-0.76586968 -0.15505403 1.0707777
-0.69210112 -0.12690072 1.0301925
-0.78136963 -0.19691856 1.1196635
-0.79511726 -0.21118198 1.1373495
-0.80415869 -0.21749051 1.1455323
-0.79868698 -0.2173629 1.1447232
-0.82704777 -0.26008946 1.196142
-0.32619661 -0.005330625 0.84917545
-0.32401526 -0.0048264144 0.84834397
-1.0173838 0.22512417 0.67683089
-1.0134318 0.22368278 0.6779592
-1.1721909 0.22308196 0.69840813
-1.1943574 0.22399646 0.70014095
-0.99910527 -0.14069027 1.0858139
-0.9868089 -0.13824221 1.0815301
-0.87103885 -0.15740326 1.0886525
-0.76042634 -0.11855803 1.0312046
-0.77887744 -0.13361844 1.0504341
-0.79428238 -0.15174514 1.0727315
-0.79644805 -0.24545519 1.1783528
-0.32591236 -0.0075206491 0.85225427
-1.017514 0.223327 0.68112266
-1.0891368 0.21961345 0.69442749
-1.1876717 0.22475255 0.70119429
-0.98869932 -0.13604665 1.0820396
-0.92535037 -0.1384131 1.0766337
-0.76108515 -0.11906751 1.0339283
-0.75362629 -0.12189039 1.0361562
-0.79169077 -0.15345213 1.0765378
-0.59883523 -0.092352502 0.98318315
-0.79339945 -0.24259399 1.1771126
-0.32918435 -0.010507124 0.85668957
-0.91841209 0.22940134 0.66362751
-0.97357708 0.23147984 0.66846871
-0.99713123 0.21533568 0.68973732
-1.003981 0.21508783 0.69090879
-1.2041473 0.2265251 0.70408344
-1.2244155 0.22470331 0.70877707
-1.0171554 -0.11455858 1.0642679
-0.98506945 -0.14116412 1.0900842
-0.84442043 -0.13641766 1.0664153
-0.84960783 -0.14112768 1.072401
-0.78131878 -0.15161562 1.0753314
-0.76839912 -0.1482527 1.0698574
-0.61580181 -0.1002643 0.99588144
-0.78596503 -0.23715492 1.1723734
-1.0233703 0.23226027 0.67634082
-1.2067831 0.22324218 0.71093261
-1.0351623 -0.13708392 1.0948961
-1.0006142 -0.13877875 1.0922115
-0.77915317 -0.12952927 1.0522949
-0.74010062 -0.11544732 1.031199
-0.78225321 -0.13833892 1.0626535
-0.78595179 -0.15400407 1.0808315
-0.79712588 -0.17102718 1.1015376
-0.59292042 -0.090726398 0.98370135
-0.58814216 -0.089198329 0.98134017
-0.72822243 -0.16884206 1.0899003
-0.827425 -0.25741813 1.2031045
-0.97735494 0.23137702 0.67335558
-0.96525824 0.21501957 0.6902045
-1.0513577 0.21835808 0.69813514
-1.1458056 0.21184929 0.71833384
-1.1685882 0.19183882 0.74405444
-0.99379045 -0.13988274 1.0953299
-0.95845068 -0.15377226 1.1062288
-0.83665574 -0.13652495 1.0701716
-0.79059523 -0.14476833 1.0732296
-0.77496618 -0.14044482 1.0662168
-0.61191976 -0.094888642 0.99254596
-0.70829582 -0.14548571 1.0628524
-0.826814 -0.26213178 1.2108426
-0.83859026 -0.27543601 1.2274852
-0.45772964 -0.10536359 0.98342705
-0.97605485 0.23322491 0.67322922
-0.97680926 0.22961278 0.67742348
-0.99715275 0.22550073 0.68490291
-1.0032432 -0.14627761 1.1066684
-0.86755383 -0.13931197 1.0799466
-0.66497922 -0.073962986 0.97784019
-0.73113161 -0.14148532 1.0634702
-0.74153101 -0.14890315 1.0733122
-0.73236829 -0.14570199 1.0684159
-0.80904591 -0.18693495 1.1257429
-0.84626192 -0.20958786 1.1565559
-0.32855016 -0.0060795727 0.85428357
-0.32476509 -0.0056097684 0.8532263
-0.32417238 -0.0055547087 0.85308158
-0.96465635 0.22822185 0.6794306
-0.94502556 0.21397431 0.69280291
-1.0199312 0.22042315 0.69610417
-1.1540475 0.21528266 0.72093427
-1.207973 0.1985862 0.74750459
-1.0129478 -0.14027417 1.1040659
-1.0096093 -0.14077434 1.1041601
-1.0049889 -0.14240786 1.1053574
-0.94145793 -0.13498735 1.087943
-0.78392726 -0.14238766 1.0740141
-0.78057325 -0.14218557 1.0733099
-0.79257482 -0.15395406 1.088353
-0.8064816 -0.24196695 1.1901107
-0.83402216 -0.26414388 1.2191563
-0.45626611 -0.10157207 0.98131442
-0.3275649 -0.0049772142 0.85356247
-0.32505912 -0.0051322458 0.8533833
-0.96679866 0.22218318 0.68872035
-0.95183176 0.21856017 0.69067025
-1.040597 0.22184274 0.69977498
-1.2056594 0.22759087 0.71710992
-1.1941199 0.22277671 0.72090781
-1.1661766 0.21775065 0.72257483
-1.2217286 0.19185863 0.76000261
-1.0509717 -0.14765006 1.1207907
-0.9470464 -0.14153913 1.0988292
-0.81782669 -0.12595755 1.0624583
-0.81208599 -0.16437706 1.1052492
-0.83343971 -0.1768389 1.1224852
-0.76601923 -0.15616569 1.0892668
-0.79785579 -0.1753 1.1155938
-0.71664751 -0.14577971 1.0703378
-0.32280242 -0.0033928188 0.85174036
-0.95167005 0.22868405 0.68124247
-0.97382575 0.22786124 0.68544471
-0.97364265 0.22597207 0.68756568
-0.97111917 0.22472782 0.68860829
-1.3485179 0.16394271 0.81336451
-1.3691411 0.16148974 0.81919432
-0.9542557 -0.1412788 1.1022677
-0.90907586 -0.14289418 1.0974431
-0.89458412 -0.1446799 1.0973368
-0.65512514 -0.077435523 0.98557448
-0.78884774 -0.13868177 1.0749271
-0.77135235 -0.13491321 1.0680627
-0.77272272 -0.13926166 1.0732088
-0.78074664 -0.14534456 1.0813081
-0.76606852 -0.15138566 1.0860126
-0.70170218 -0.13861968 1.0620075
-0.58107805 -0.081226222 0.97896683
-0.32658327 -0.0027044145 0.85216534
-0.32356447 -0.0051098494 0.85445523
-0.98525614 0.22662303 0.69073272
-1.0504092 0.2315364 0.69493282
-1.22436 0.23357995 0.71875608
-1.1938157 0.19298528 0.76038551
-0.94987851 -0.10800248 1.0664191
-0.81144941 -0.11506391 1.0536492
-0.82366163 -0.12481762 1.0665905
-0.76086676 -0.13061267 1.063749
-0.77018982 -0.14091647 1.0768824
-0.77649832 -0.1449956 1.0824753
-0.75325674 -0.1595163 1.0955145
-0.77052188 -0.19056527 1.1334624
-0.80606562 -0.24147464 1.1967711
-0.45011985 -0.096760705 0.97849059
-0.32437545 -0.0023853807 0.85213172
-0.32359326 -0.0030674818 0.85279071
-1.0113342 0.23097271 0.69196856
-1.1957707 0.24062309 0.70922518
-1.1770394 0.23615505 0.71144974
-1.2161605 0.23043256 0.72396898
-1.3774846 0.16358759 0.82490516
-0.98669112 -0.15908706 1.1329441
-0.81767887 -0.12018885 1.062695
-0.81976116 -0.12226609 1.0653825
-0.77211398 -0.14965492 1.0893109
-0.72078937 -0.13553841 1.065351
-0.73094487 -0.14278476 1.0751693
-0.74956065 -0.15548058 1.0924977
-0.57433355 -0.080045916 0.97963703
-0.78076208 -0.2200966 1.1709547
-0.32642543 -0.0069948919 0.85835755
-1.2358425 0.24149051 0.71728313
-1.2435522 0.24104519 0.71899545
-1.2074234 0.22725837 0.72909701
-1.3460021 0.16733649 0.81915331
-1.3589716 0.16624729 0.82242179
-1.3755536 0.16523828 0.82616293
-0.96279389 -0.10359471 1.0686822
-1.0527956 -0.14424443 1.129149
-1.0257711 -0.1391224 1.1190813
-0.8041628 -0.11276526 1.0543872
-0.81847501 -0.12200647 1.0671735
-0.7299543 -0.1377631 1.0713445
-0.7367987 -0.14587571 1.0816765
-0.59452629 -0.086824186 0.9920373
-0.72800726 -0.16250689 1.0992938
-0.79288888 -0.2302803 1.1868093
-0.83117062 -0.25685197 1.2231264
-0.32265085 0.0017850674 0.84841383
-0.32693869 -0.0062333532 0.85823894
-0.32780182 -0.0078834482 0.86025786
-0.96670771 0.23498394 0.6848352
-1.0209963 0.22953071 0.69970441
-1.0316941 0.22880377 0.70223689
-1.0439284 0.22819965 0.70487332
-1.1832058 0.24081172 0.71260166
-1.1929419 0.23948647 0.71566546
-1.3757591 0.1669559 0.82767451
-0.99341375 -0.157213 1.1375405
-0.99844468 -0.16053247 1.1421361
-0.96043658 -0.15651134 1.1314936
-0.78932768 -0.096477456 1.0356359
-0.75067693 -0.13668042 1.0754594
-0.60550296 -0.077413 0.98460257
-0.58153951 -0.080523692 0.98434865
-0.79500455 -0.23189352 1.1913803
-0.80323648 -0.23809762 1.1997837
-0.97010982 0.23745586 0.68470156
-1.1854784 0.22671522 0.73187852
-1.3455718 0.17065556 0.8219974
-1.3577876 0.16957808 0.82520962
-0.99398667 -0.15136951 1.1338027
-0.91067368 -0.14182329 1.1093793
-0.88174409 -0.1355184 1.0974746
-0.78532207 -0.14231533 1.0896426
-0.58576536 -0.078294091 0.98401606
-0.45551074 -0.088784598 0.97493446
-0.42940074 -0.074100755 0.95389187
-0.97417068 0.23911394 0.68562615
-1.0024068 0.23053689 0.70011663
-0.99423844 -0.15013045 1.1352822
-0.91625762 -0.14263806 1.1138343
-0.82813168 -0.11730737 1.0702586
-0.58298683 -0.078048117 0.98482418
-0.56327993 -0.15242346 1.0668616
-0.46522009 -0.093971968 0.98366845
-0.43398494 -0.080100067 0.96261191
-0.43566459 -0.082153253 0.96524334
-0.32644248 -0.0040630135 0.8576901
-0.97854894 0.2408285 0.68656218
-0.98221713 0.23761095 0.69087243
-1.2048182 0.23645385 0.72955167
-1.1914003 0.23135658 0.73315358
-1.1865149 0.22963355 0.73431242
-1.3751941 0.17207311 0.83206964
-1.0333267 -0.14237133 1.1357944
-0.99587607 -0.15249807 1.1411394
-0.92823321 -0.14278218 1.1186324
-0.9240585 -0.14276376 1.1179109
-0.84704316 -0.12188224 1.0810094
-0.8265242 -0.11952525 1.07486
-0.82045835 -0.11982676 1.0741884
-0.77847624 -0.12975582 1.078546
-0.77489543 -0.12949595 1.0776469
-0.56359929 -0.073890202 0.97833943
-0.57488894 -0.083253421 0.99098587
-0.60122031 -0.16292043 1.0868883
-1.0195198 0.25166035 0.68328536
-0.89814967 0.22290064 0.69563746
-1.0298047 0.23330164 0.70615315
-1.196162 0.23326698 0.73459399
-0.89026922 -0.010744426 0.96297634
-0.82082027 -0.0007579666 0.93963575
-0.61449158 -0.17104517 1.1002355
-0.57617277 -0.15062316 1.070209
-0.55202127 -0.14410983 1.0585958
-0.56417805 -0.15375106 1.0717583
-0.56197828 -0.15529962 1.0731635
-0.32990736 -0.0077673383 0.86388648
-0.94797236 0.23236085 0.69537795
-1.0425214 0.23710112 0.70633841
-0.93624645 -0.13723063 1.1189651
-0.93050945 -0.14852872 1.1309798
-0.80182999 -0.13620478 1.0944409
-0.78561205 -0.13454336 1.0897112
-0.75298429 -0.13907334 1.0892618
-0.65647233 -0.18236692 1.1223586
-0.51970875 -0.11787754 1.0243418
-0.46367675 -0.087311752 0.9794116
-0.46739817 -0.091612898 0.9850111
-0.32058769 0.003360746 0.85014367
-0.33157188 -0.0079304306 0.86505425
-0.98621404 0.24431647 0.69046187
-0.89803708 0.22488116 0.69730318
-0.8977496 0.22315274 0.69924569
-0.85049587 5.5443987e-05 0.94818664
-0.90046322 -0.027541257 0.988837
-0.79476464 -0.13739055 1.0968534
-0.58505607 -0.083631359 0.99782014
-0.55432254 -0.069802679 0.9764446
-0.82692331 -0.22373916 1.2021139
-0.71847796 -0.17731456 1.1294229
-0.64060193 -0.17031632 1.1075989
-0.65219378 -0.18001421 1.1208303
-0.57902241 -0.13762368 1.059021
-0.59523076 -0.15343793 1.0801213
-0.51173592 -0.11350217 1.0193199
-0.57676059 -0.16556306 1.0908426
-0.47530073 -0.096041933 0.99274921
-0.52247852 -0.13323148 1.0439699
-0.50826794 -0.12460072 1.0315068
-0.32111853 0.0040650275 0.85007191
-0.32450539 -0.00044590511 0.85587227
-0.33343798 -0.0087112514 0.86698174
-0.98953283 0.25152457 0.68494904
-0.98975873 0.24688606 0.69034648
-0.98788238 0.2456743 0.69140911
-0.94745666 0.22991385 0.70235205
-1.1692734 0.2535702 0.71486008
-1.0571663 0.23200957 0.71963072
-1.213172 0.23937629 0.73913467
-0.96260554 -0.10504182 1.0919094
-0.87838089 -0.11776075 1.0914755
-0.87331861 -0.11737386 1.0901197
-0.90728384 -0.14206994 1.1247396
-0.79520547 -0.13525203 1.0967414
-0.79290497 -0.14074838 1.102676
-0.82236224 -0.20256229 1.1793536
-0.83488238 -0.2103561 1.1906028
-0.74648046 -0.19183201 1.1533363
-0.73059934 -0.18567549 1.1433747
-0.57092518 -0.14597465 1.0688541
-0.57389456 -0.16494511 1.091296
-0.42915952 -0.070437096 0.95616162
-0.42728204 -0.069720916 0.95499742
-0.43388999 -0.077675216 0.96537018
-0.44460976 -0.087487333 0.97862697
-0.32486808 -0.00046433782 0.8566246
-0.93169683 0.24633308 0.68261576
-0.98643273 0.24564345 0.69340336
-0.9685452 0.23844062 0.69846916
-1.0588245 0.23448533 0.71952057
-1.2129688 0.24578379 0.73458672
-0.95423448 0.012398565 0.95728374
-1.0473933 -0.14626992 1.1577928
-1.047435 -0.15121797 1.163523
-1.0270176 -0.14798614 1.1560588
-0.88974178 -0.11223009 1.0896509
-0.88947487 -0.11903283 1.0974698
-0.88612229 -0.12203456 1.1003296
-0.83940744 -0.12154263 1.0912347
-0.79307932 -0.13849452 1.1023848
-0.78748232 -0.18393657 1.1539187
-0.80003101 -0.19305207 1.1667514
-0.79928958 -0.19408403 1.1678097
-0.75592166 -0.20150076 1.1684722
-0.58573204 -0.13635652 1.0620685
-0.55519468 -0.12869526 1.0476346
-0.55954587 -0.14771785 1.070429
-0.43785381 -0.07877364 0.96848202
-0.98344672 0.24538787 0.69536936
-0.98333025 0.24443692 0.69644904
-1.2175429 0.24526209 0.73893428
-1.2311878 0.24554108 0.7411418
-1.2410836 0.24536976 0.74317575
-0.96391606 0.013461823 0.9603616
-0.94257367 -0.096725658 1.0840213
-1.052382 -0.13656062 1.1505245
-0.90190464 -0.12773797 1.1123962
-0.77555579 -0.1389091 1.1019
-0.76038772 -0.14228502 1.1029967
-0.75610143 -0.19922991 1.1681547
-0.59186351 -0.13221382 1.060075
-0.5888254 -0.13758247 1.0657295
-0.53738773 -0.11439994 1.0293392
-0.53424376 -0.11512008 1.0295901
-0.54892892 -0.13068865 1.0503453
-0.54914886 -0.13973738 1.0608662
-0.57413226 -0.16153671 1.0907478
-0.57932907 -0.16741522 1.0985202
-0.43662602 -0.070783503 0.96013415
-0.43107098 -0.06881126 0.95681965
-0.44541281 -0.084066622 0.97714829
-0.31272483 0.011210246 0.84218907
-0.31580597 0.0078917127 0.84660399
-0.97720355 0.24279822 0.6994164
-0.97260761 0.24121149 0.7003907
-1.0554478 0.23547849 0.722651
-0.99188852 -0.11418372 1.1162281
-1.0533241 -0.13542607 1.1524432
-0.777152 -0.14115825 1.1070483
-0.78551334 -0.14744741 1.1159184
-0.77282584 -0.2046812 1.1799099
-0.60456043 -0.14244078 1.0760117
-0.60539562 -0.145106 1.0792603
-0.53283614 -0.12101781 1.0376482
-0.55645949 -0.14114188 1.0654408
-0.57197791 -0.15822603 1.0881802
-0.57490927 -0.1613739 1.0923836
-0.43905413 -0.070642598 0.96154785
-0.31191033 0.012122153 0.84159374
-0.31806022 0.00590395 0.84996486
-1.0447996 0.23434617 0.72438335
-0.8923434 0.037194863 0.92419243
-0.97352546 -0.09577024 1.094172
-0.90781665 -0.12882176 1.1199834
-0.85312277 -0.11789622 1.0968239
-0.74735445 -0.12342084 1.0829945
-0.78792852 -0.14880157 1.1202412
-0.73755717 -0.13242914 1.0915822
-0.75384808 -0.14236459 1.1062407
-0.77749044 -0.20902939 1.1881979
-0.61330742 -0.14490117 1.0822845
-0.58169049 -0.13885947 1.0692148
-0.5251767 -0.11333515 1.0287502
-0.59041339 -0.16719954 1.1038017
-0.58256751 -0.16280989 1.0972012
-0.57648146 -0.16069393 1.0935785
-0.4393118 -0.069625951 0.96154523
-0.42483813 -0.063247092 0.95136571
-0.45623273 -0.089725472 0.98812997
-0.95171988 0.23766725 0.70485628
-1.1813629 0.22833842 0.76035082
-0.88155329 0.054940339 0.90375769
-0.91209376 -0.019305412 0.99605525
-0.9404912 -0.092428096 1.0866299
-1.0538003 -0.13436604 1.1574384
-0.8723942 -0.12089252 1.1065003
-0.76324922 -0.13180369 1.0979737
-0.83160049 -0.19869463 1.1890669
-0.8185696 -0.20095952 1.1891681
-0.8584674 -0.23666458 1.2384553
-0.58682591 -0.13414596 1.0664008
-0.57230729 -0.12707622 1.0553548
-0.5789997 -0.13435684 1.0651245
-0.49905139 -0.088395305 0.99612129
-0.59114546 -0.16807483 1.1067054
-0.92583686 0.24970807 0.68787396
-0.92663097 0.24898262 0.68887579
-1.3669264 0.20107578 0.83159053
-1.3339589 0.19159013 0.83613229
-0.85186791 0.052702278 0.90275216
-0.85483199 0.04816157 0.90862644
-0.84496546 0.047199871 0.90779912
-0.88826859 0.034274578 0.93140256
-0.94442236 0.01235059 0.96802485
-0.95288932 -0.094695777 1.0943874
-1.0270029 -0.14430332 1.1668015
-0.98884302 -0.15101364 1.1670853
-0.76476204 -0.14539185 1.1163049
-0.81328452 -0.20153497 1.1912804
-0.80874658 -0.22856842 1.221874
-0.61769211 -0.14493217 1.0867388
-0.60072356 -0.16948621 1.1119908
-0.5944919 -0.1674303 1.1083659
-0.43338799 -0.067945905 0.96068239
-0.42557251 -0.063578762 0.95405269
-0.41700262 -0.057890516 0.9457351
-0.45487195 -0.087680258 0.98791039
-0.31792313 0.0063913073 0.85129988
-0.92870766 0.25121158 0.68875492
-0.98487139 0.25211167 0.69895947
-0.98265535 0.24991076 0.70108283
-0.97379017 0.24301668 0.70734823
-1.3359828 0.20229 0.82743537
-0.78568488 0.071098819 0.87019706
-0.80215776 0.065792017 0.87968838
-0.91325873 0.022820907 0.95207775
-0.91579616 -0.021469567 1.0042512
-0.91380221 -0.022329513 1.0048548
-1.0344297 -0.14852101 1.17623
-0.96111488 -0.13880795 1.1502082
-0.85422617 -0.11493699 1.1009436
-0.78899872 -0.12293892 1.0972068
-0.77769792 -0.12088446 1.0925457
-0.74040538 -0.12842099 1.0938642
-0.77364886 -0.15103823 1.1269089
-0.77662504 -0.17367342 1.1539094
-0.80828518 -0.19790162 1.1885159
-0.84982455 -0.23289759 1.2376629
-0.83463794 -0.24649386 1.2504797
-0.63292867 -0.15109937 1.0987816
-0.62080497 -0.18365537 1.1343288
-0.58223522 -0.16147549 1.100727
-0.43657285 -0.068370439 0.96293056
-0.49192566 -0.11581136 1.0293626
-0.49442333 -0.11858387 1.0330973
-0.31676149 0.010119466 0.847363
-1.224741 0.2747176 0.72357595
-1.0428734 0.23997857 0.72716713
-1.333344 0.20377463 0.82853866
-0.82600379 0.070436634 0.88111317
-0.77677894 0.069145218 0.87260985
-0.81221664 0.061888229 0.88829494
-0.83541578 0.057520561 0.89811563
-0.83819169 0.05620876 0.90021265
-0.88462371 0.035804547 0.93349218
-0.89094317 0.030462781 0.94101763
-0.93498737 -0.01002741 0.99727559
-0.91012371 -0.016696904 1.0000095
-0.89695913 -0.017823821 0.99864852
-0.98560077 -0.10131966 1.1142154
-0.96285719 -0.14269254 1.1579205
-0.75877285 -0.11707088 1.0864811
-0.83545858 -0.1783191 1.1736269
-0.79207432 -0.18164307 1.168686
-0.78944939 -0.1858874 1.1731102
-0.81367457 -0.20099376 1.1956844
-0.78332877 -0.20519458 1.1944194
-0.7962898 -0.21656789 1.2103417
-0.61514992 -0.1418442 1.0862091
-0.58152193 -0.13277511 1.0687752
-0.57044679 -0.15465553 1.0920829
-0.43596846 -0.066735037 0.96202457
-0.51418859 -0.13478492 1.0574281
-0.32155466 0.0026849483 0.8576591
-0.97962344 0.24234492 0.71378088
-1.1914246 0.27144852 0.72344947
-0.79884481 0.082142353 0.86388218
-0.86499894 0.048020724 0.91745353
-0.91087794 0.025426481 0.95335495
-0.92133528 0.02280754 0.95857704
-0.92494774 0.01264833 0.9712075
-0.91271311 -0.012305487 0.9978745
-1.0467737 -0.12827554 1.1612124
-0.98369253 -0.11599515 1.1338264
-1.0057235 -0.13985345 1.1662842
-0.90685624 -0.11397821 1.115608
-0.87862831 -0.11845654 1.1150209
-0.74576896 -0.12399483 1.0940778
-0.86172235 -0.22580756 1.2371163
-0.79466534 -0.20018752 1.1933043
-0.77112281 -0.19201629 1.1788859
-0.79172587 -0.2043568 1.1975751
-0.63542944 -0.15211295 1.104198
-0.53748876 -0.11182059 1.036847
-0.43625724 -0.071541913 0.96883285
-0.52920991 -0.14255385 1.0710917
-0.32006919 0.0059010144 0.85425496
-0.9715125 0.25243902 0.70250416
-1.5110645 0.27740094 0.78624964
-1.3669314 0.19873925 0.8482213
-0.78038538 0.086163566 0.85727704
-0.74228019 0.077593975 0.85933685
-0.75208181 0.072357073 0.86752474
-0.91306281 0.014389522 0.96914732
-0.92704439 0.0061537544 0.98172367
-0.8921926 -0.0049372646 0.98741877
-0.86174691 -0.0098382719 0.9867847
-1.0376086 -0.11782217 1.1501193
-0.96229964 -0.10686947 1.1215172
-1.0359452 -0.14479175 1.1813667
-0.80090362 -0.12718186 1.1115154
-0.782098 -0.17190367 1.1599704
-0.79314977 -0.19975393 1.1949123
-0.79358107 -0.20859419 1.2053593
-0.63403028 -0.1504683 1.1038507
-0.59699225 -0.13360758 1.0763416
-0.60957652 -0.14343484 1.0904899
-0.56832069 -0.12806948 1.0638493
-0.55450958 -0.12022229 1.0517639
-0.58351725 -0.14725037 1.0895028
-0.56275254 -0.13859184 1.0750105
-0.60020828 -0.17059614 1.1203485
-0.58613747 -0.16308199 1.1085988
-0.53111714 -0.14234023 1.0727772
-0.93566197 0.27186218 0.6743114
-0.96669471 0.27159745 0.68121433
-0.9721027 0.24626921 0.71207869
-0.97688562 0.24605106 0.71335077
-1.4025767 0.20737591 0.84915662
-1.3729262 0.20236067 0.84874177
-0.79029357 0.088265806 0.85882878
-0.8108899 0.082269959 0.87023854
-0.73555046 0.078171596 0.85904217
-0.76124996 0.070603848 0.87338018
-0.76764745 0.069089115 0.87651646
-0.80596244 0.053664494 0.90275228
-0.92088425 0.0095145097 0.97896326
-0.89700854 0.0037357043 0.98067093
-0.87921631 0.00088511134 0.9802357
-0.86851442 -0.0030342974 0.98256063
-0.84153336 -0.0014099072 0.97492301
-1.028541 -0.11231485 1.1447657
-0.95320779 -0.10147434 1.116044
-0.93865609 -0.13071483 1.1472583
-0.79993248 -0.12963736 1.1165245
-0.79194272 -0.12767678 1.112527
-0.77338415 -0.16529649 1.1527207
-0.79699075 -0.18227729 1.1776576
-0.8002007 -0.18808599 1.1851544
-0.65477133 -0.16081421 1.1222646
-0.61656827 -0.14036496 1.0901575
-0.59749359 -0.14272024 1.0888686
-0.54331434 -0.11713189 1.0473382
-0.54783833 -0.1220153 1.0540286
-0.60458845 -0.17284648 1.1257204
-0.96116179 0.24936904 0.70830703
-0.79338872 0.089010254 0.86056495
-0.83704573 0.080480829 0.8799926
-0.88473958 0.015090457 0.96709633
-0.85535276 0.015202036 0.96063352
-0.88343555 0.0071362839 0.97616076
-0.85036039 0.0047962186 0.97178376
-0.8543309 0.00066473731 0.97749329
-0.84140825 0.0019169189 0.97323775
-1.0293918 -0.11432153 1.1503105
-1.0289576 -0.13495567 1.1744601
-1.0186248 -0.13982657 1.1779567
-0.95964956 -0.13188118 1.1559145
-0.80504972 -0.091153413 1.0747528
-0.86206198 -0.11203257 1.1115679
-0.79223496 -0.12675852 1.1138244
-0.79507607 -0.12920859 1.1173152
-0.78662831 -0.16928691 1.1625832
-0.77131921 -0.17535427 1.1664133
-0.68674809 -0.17385022 1.1464243
-0.64921695 -0.15668993 1.118176
-0.57981032 -0.13293202 1.0753083
-0.55335969 -0.12594976 1.0614057
-0.31496048 0.013266957 0.84647298
-0.31665343 0.01069705 0.84985721
-0.31781304 0.0093616899 0.85167599
-0.327205 0.00013263251 0.86454284
-0.93853462 0.27785477 0.67204094
-0.9549551 0.27937222 0.67384326
-0.95158166 0.24536544 0.71311855
-1.406605 0.21117602 0.85276687
-1.3653932 0.20530733 0.85066724
-0.90097558 0.070643492 0.90763879
-0.73207968 0.066451579 0.87566781
-0.95511925 0.022976622 0.97555363
-0.9321056 0.021159619 0.97266316
-0.8532899 0.016598731 0.96080852
-0.86644495 0.013345069 0.96751118
-0.89637285 0.0037138965 0.98538232
-0.84037155 0.0065145465 0.96985102
-0.84955448 0.0037398681 0.97512209
-0.93888879 -0.099110276 1.1156545
-0.85099083 -0.11110114 1.1105576
-0.78817064 -0.12279641 1.1105924
-0.79721326 -0.17329529 1.1719849
-0.78353071 -0.1681146 1.1628997
-0.82675427 -0.20500384 1.2157478
-0.832816 -0.2247131 1.240262
-0.64666969 -0.15435468 1.1168061
-0.61401445 -0.15044416 1.10507
-0.54559016 -0.11347111 1.046617
-0.55735403 -0.13088609 1.0696779
-0.31551778 0.013508468 0.84694314
-0.31827348 0.0092670973 0.85253572
-0.83838332 0.26122892 0.67152548
-0.9556511 0.27279645 0.68387473
-0.9386645 0.26793146 0.68584394
-1.4743323 0.28683531 0.78224027
-1.5020871 0.28865275 0.78624749
-1.456408 0.26758668 0.80094981
-1.4365869 0.21665052 0.85657644
-0.81165105 0.088897124 0.86866057
-0.84663367 0.08285889 0.88352537
-0.93824536 0.02394435 0.97323942
-0.90685707 0.02106677 0.96967626
-0.84335709 0.020341283 0.95646358
-0.87925655 0.010043612 0.97655022
-0.89770067 0.0034245607 0.98843563
-0.83299696 0.0099727707 0.9663856
-1.0041127 -0.12312329 1.1611203
-0.98038554 -0.12981465 1.1637483
-0.87516963 -0.11148526 1.1188416
-0.80671173 -0.12527648 1.1199256
-0.82178921 -0.20433323 1.216418
-0.64609808 -0.15203293 1.1158706
-0.54703242 -0.11468174 1.0499132
-0.45154476 -0.084243201 0.9928937
-0.84114379 0.264148 0.67051017
-0.94612598 0.27721059 0.67867386
-0.94828963 0.27506411 0.6816926
-0.96950155 0.25853288 0.70596325
-0.97125858 0.25791121 0.70709145
-1.1920109 0.27764624 0.73338199
-1.5064347 0.29265192 0.78629029
-1.5170755 0.29236427 0.78901935
-1.4598486 0.22505285 0.85559416
-1.4055901 0.21464309 0.85569191
-0.85763401 0.072942585 0.89983451
-0.84154791 0.07318569 0.89593494
-0.81928349 0.072015747 0.89231515
-0.73343515 0.067158043 0.87876701
-0.90247667 0.026345575 0.96488953
-0.8639552 0.017042875 0.9672153
-0.87725216 0.011474645 0.97677219
-0.85965061 0.0017748368 0.98426485
-0.90721571 -0.086061992 1.098594
-0.91645664 -0.091503777 1.1070905
-0.9779864 -0.11703061 1.1510308
-0.95746905 -0.11828999 1.1479088
-0.95580828 -0.12376219 1.153993
-0.7998693 -0.12540835 1.1209137
-0.79395759 -0.1793144 1.1831949
-0.83076638 -0.20476545 1.2214937
-0.62143642 -0.14232309 1.1007998
-0.6360721 -0.15907024 1.1238482
-0.57463688 -0.12854068 1.0740262
-0.46244729 -0.08944618 1.0026989
-0.32604325 0.0028140817 0.86319828
-0.32957643 -0.0008970378 0.86837077
-0.94581628 0.27905509 0.6785388
-0.94009376 0.27454901 0.68256104
-0.92693573 0.26700088 0.68848526
-0.95104527 0.25031888 0.71368659
-1.5165212 0.29418391 0.79057622
-1.5000117 0.27772638 0.80626583
-1.4750609 0.24768995 0.83607984
-0.92670792 0.072110288 0.91873455
-0.90902072 0.072276421 0.91451192
-0.83016306 0.074096784 0.89440966
-0.82045472 0.072905213 0.89360785
-0.80981946 0.067954317 0.89703727
-0.76506859 0.066574693 0.88848054
-0.73461944 0.067023993 0.88101816
-0.88688791 0.045424409 0.94120455
-0.9442392 0.026762733 0.97631228
